# .PCD v0.7 - Point Cloud Data file format
VERSION 0.7
FIELDS x y z intensity
SIZE 4 4 4 4
TYPE F F F F
COUNT 1 1 1 1
WIDTH 1394
HEIGHT 1
VIEWPOINT 0 0 0 1 0 0 0
POINTS 1394
DATA ascii
-10.237882 -9.7414465 -1.7283909 24
-10.296035 -14.018929 -1.5156615 23
-6.5753798 -6.2529826 -1.7537199 14
-6.5914249 -8.9818382 -1.7610456 12
-4.9265895 -4.6823459 -1.810554 6
-4.7080917 -6.4296794 -1.8288956 6
nan nan nan 0
-16.633276 -19.520115 6.3759842 1
-24.016258 -19.676472 4.3585529 30
-15.14152 -17.744083 4.1027141 25
-23.947241 -19.63389 2.1575751 35
-14.322629 -16.766499 2.3139987 23
-23.911077 -19.61121 0 34
-16.555998 -19.360907 0.88836664 24
-10.63765 -8.7183809 -0.95693338 20
-10.350924 -12.099123 -0.55758989 7
-9.4280901 -7.716691 -1.7030671 8
-10.231565 -11.95956 -1.6450249 24
-6.5912294 -5.3830152 -1.8030353 19
-6.5071864 -7.6076999 -1.7590574 15
-4.9044051 -3.9926097 -1.8022606 5
-4.8036065 -5.6191206 -1.8330896 6
-33.654953 -31.817053 10.667334 9
-10.019082 -13.641453 4.5195551 28
-20.655451 -19.535141 4.4871879 17
-13.344921 -18.106098 4.3613129 27
-20.609419 -19.491602 2.4787092 24
-12.686718 -17.16877 2.6131196 26
-20.586596 -19.463217 0.49390307 28
-12.511801 -16.901106 1.1002326 25
-10.586652 -10.006544 -0.76415741 10
-10.286385 -13.893618 -0.30114368 7
-10.30058 -9.7294121 -1.7329545 24
-10.29551 -13.911018 -1.5080506 25
-6.5768342 -6.2086277 -1.7480059 15
-6.6389737 -8.9774771 -1.7649606 12
-4.9384465 -4.6592865 -1.808614 5
-4.731626 -6.4123797 -1.8288956 6
-39.287487 -32.138973 10.772408 1
-16.435043 -19.287439 6.2998853 1
-24.016258 -19.676472 4.3585529 30
-15.14152 -17.744083 4.1027141 25
-23.947241 -19.63389 2.1575751 35
-14.325555 -16.763996 2.3139987 23
-23.911077 -19.61121 0 34
-16.555998 -19.360907 0.88836664 24
-10.639172 -8.7165241 -0.95693338 20
-16.531666 -19.325621 -0.89131963 1
-9.4294376 -7.7150455 -1.7030671 8
-10.231569 -11.959556 -1.6450249 24
-6.5921683 -5.3818645 -1.8030353 19
-6.5085139 -7.6065645 -1.7590574 15
-4.9051018 -3.9917538 -1.8022606 5
-4.8045869 -5.6182818 -1.8330896 6
-33.660507 -31.811176 10.667334 9
-10.021462 -13.639705 4.5195551 28
-20.658861 -19.531538 4.4871879 17
-13.348081 -18.103769 4.3613129 27
-20.61282 -19.488007 2.4787092 24
-12.689713 -17.166555 2.6131196 26
-20.589993 -19.459621 0.49390307 28
-12.51475 -16.89892 1.1002326 25
-10.588399 -10.004697 -0.76415741 10
-13.89552 -18.757395 -0.4068625 1
-10.302279 -9.7276144 -1.7329545 24
-10.300364 -13.907424 -1.5080506 25
-6.5779185 -6.20748 -1.7480059 15
-6.642107 -8.9751596 -1.7649606 12
-4.940073 -4.6575618 -1.808614 5
-4.7327452 -6.4115539 -1.8288956 6
nan nan nan 0
-16.706051 -19.467459 6.3777962 4
-24.200037 -19.686239 4.3794289 30
-15.221016 -17.711664 4.1074848 14
-24.131689 -19.64463 2.1680126 36
-15.410486 -17.906885 2.4794152 23
-24.107344 -19.631798 0 36
-16.662603 -19.348438 0.89046061 28
-10.595998 -8.6195507 -0.95032305 16
-10.373528 -12.0402 -0.55653769 8
-9.4447765 -7.6727204 -1.7009846 9
-10.214838 -11.855947 -1.6356486 21
-6.5957112 -5.3465099 -1.7988734 22
-6.5350261 -7.5837989 -1.7590574 13
-4.9133945 -3.9700799 -1.8001946 5
-4.8273339 -5.6051531 -1.8342983 6
-33.917011 -31.830185 10.713379 9
-10.047471 -13.575516 4.5098624 23
-20.813332 -19.54043 4.505919 15
-13.387788 -18.025536 4.3536878 25
-20.756985 -19.487526 2.4878607 24
-12.72289 -17.086325 2.6076434 31
-20.728882 -19.45434 0.49560466 24
-12.612464 -16.907171 1.1036345 27
-10.559529 -9.9078941 -0.75956279 3
-10.257453 -13.743824 -0.29874399 1
-10.323499 -9.6797132 -1.7308248 21
-10.280367 -13.779543 -1.4980477 26
-6.5834265 -6.1693802 -1.7437204 15
-6.6674953 -8.9439983 -1.7633946 12
-4.9598279 -4.64359 -1.8099073 6
-4.7594543 -6.4008617 -1.83058 6
-39.621536 -32.182011 10.833172 1
-16.706051 -19.467459 6.3777962 4
-24.200037 -19.686239 4.3794289 30
-15.221016 -17.711664 4.1074848 14
-24.131689 -19.64463 2.1680126 36
-15.410486 -17.906885 2.4794152 23
-24.107344 -19.631798 0 36
-16.662603 -19.348438 0.89046061 28
-10.594493 -8.6214008 -0.95032305 16
-16.643049 -19.318909 -0.89368713 1
-9.4447765 -7.6727204 -1.7009846 9
-10.214833 -11.855952 -1.6356486 21
-6.5957112 -5.3465099 -1.7988734 22
-6.5337024 -7.5849395 -1.7590574 13
-4.9133945 -3.9700799 -1.8001946 5
-4.8263555 -5.6059957 -1.8342983 6
-33.917011 -31.830185 10.713379 9
-10.045101 -13.577269 4.5098624 23
-20.813332 -19.54043 4.505919 15
-13.384642 -18.027872 4.3536878 25
-20.756985 -19.487526 2.4878607 24
-12.719908 -17.088543 2.6076434 31
-20.728882 -19.45434 0.49560466 24
-12.609513 -16.909372 1.1036345 27
-20.816105 -19.52936 -1.4990402 2
-13.98454 -18.747282 -0.40764788 10
-10.323499 -9.6797132 -1.7308248 21
-10.277963 -13.781336 -1.4980477 26
-6.5823493 -6.1705294 -1.7437204 15
-6.6659346 -8.9451628 -1.7633946 12
-4.9590178 -4.6444559 -1.8099073 6
-4.7594543 -6.4008617 -1.83058 6
nan nan nan 0
nan nan nan 0
-24.38459 -19.702332 4.401001 26
-15.226512 -17.59964 4.093173 28
-24.309193 -19.655432 2.178102 36
-15.119786 -17.451639 2.4232311 20
-24.290894 -19.647636 0 32
-16.797043 -19.374256 0.89421231 25
-10.543482 -8.5219688 -0.94319081 5
-10.333195 -11.913242 -0.55224109 7
-9.495224 -7.661561 -1.7054965 8
-10.273641 -11.844555 -1.638774 25
-6.5886345 -5.3046856 -1.7921109 20
-6.5378542 -7.5390453 -1.7534138 13
-4.9302835 -3.9567704 -1.801572 5
-4.8449192 -5.5899596 -1.8342983 6
-34.143547 -31.830492 10.751563 13
-10.116031 -13.578753 4.5214939 22
-20.955669 -19.543716 4.5226984 17
-13.294504 -17.782867 4.3050747 30
-20.914385 -19.505209 2.4989729 25
-12.737822 -16.994635 2.5997329 32
-20.866417 -19.453672 0.49734992 27
-12.644536 -16.83951 1.1018027 24
-10.539359 -9.8234644 -0.75575578 2
-10.359111 -13.789489 -0.30044562 20
-10.331933 -9.6234436 -1.7268697 23
-10.236895 -13.631646 -1.4854352 31
-6.5830154 -6.1302724 -1.7384826 14
-6.698523 -8.926959 -1.7641776 12
-4.9690862 -4.6230516 -1.8079674 5
-4.7791953 -6.3830929 -1.8300186 6
-39.901253 -32.190159 10.880433 1
nan nan nan 0
-24.38459 -19.702332 4.401001 26
-15.226512 -17.59964 4.093173 28
-24.309193 -19.655432 2.178102 36
-15.116741 -17.454277 2.4232311 20
-24.290894 -19.647636 0 32
-16.797043 -19.374256 0.89421231 25
-10.543482 -8.5219688 -0.94319081 5
-16.77577 -19.34289 -0.89736986 1
-9.4938869 -7.6632185 -1.7054965 8
-10.273641 -11.844555 -1.638774 25
-6.5877085 -5.3058357 -1.7921109 20
-6.5378542 -7.5390453 -1.7534138 13
-4.9295921 -3.9576309 -1.801572 5
-4.8449192 -5.5899596 -1.8342983 6
-34.137989 -31.836449 10.751563 13
-10.116031 -13.578753 4.5214939 22
-20.952259 -19.547375 4.5226984 17
-13.294504 -17.782867 4.3050747 30
-20.91098 -19.50886 2.4989729 25
-12.737822 -16.994635 2.5997329 32
-20.863022 -19.457312 0.49734992 27
-12.644536 -16.83951 1.1018027 24
-20.857267 -19.445143 -1.4975961 19
-13.911329 -18.527325 -0.4038083 1
-10.330254 -9.625246 -1.7268697 23
-10.234515 -13.633433 -1.4854352 31
-6.5830154 -6.1302724 -1.7384826 14
-6.6969652 -8.9281273 -1.7641776 12
-4.9682789 -4.623919 -1.8079674 5
-4.7780814 -6.3839269 -1.8300186 6
nan nan nan 0
nan nan nan 0
-24.561367 -19.703831 4.420485 25
-15.352542 -17.620642 4.1105208 1
-24.486574 -19.657873 2.1878436 36
-15.136722 -17.354557 2.416698 22
-6.8728719 -5.5233397 0 2
-16.925364 -19.385149 0.89744055 26
-10.654878 -8.5506468 -0.95049703 9
-10.374716 -11.877101 -0.55224109 7
-9.4993219 -7.613008 -1.7016788 8
-10.283849 -11.773038 -1.6338254 30
-6.5909052 -5.2705979 -1.7879492 24
-6.5479398 -7.497632 -1.7490727 12
-4.9414968 -3.9389026 -1.8008833 5
-4.8612137 -5.5693583 -1.8330896 6
-34.390121 -31.847851 10.795923 9
-10.173511 -13.556881 4.5260177 25
-21.105509 -19.552988 4.541039 19
-13.29451 -17.654003 4.285058 25
-21.057514 -19.508522 2.5083423 28
nan nan nan 0
-21.02618 -19.472679 0.49961871 31
-12.673126 -16.755438 1.0991858 37
-10.500425 -9.7223186 -0.75063598 2
-10.321877 -13.64539 -0.29804587 21
-10.349217 -9.5756474 -1.7244358 24
-10.282043 -13.597625 -1.4854352 25
-6.5953622 -6.0989261 -1.7361017 13
-6.7266021 -8.9027271 -1.7637862 10
-4.987937 -4.6098256 -1.8092607 6
-4.8032665 -6.3711019 -1.8311417 6
-40.200436 -32.200489 10.931329 1
nan nan nan 0
-24.56716 -19.708477 4.4215288 25
-15.352542 -17.620642 4.1105208 1
-24.486574 -19.657873 2.1878436 36
-15.139751 -17.351915 2.416698 22
-24.337885 -19.545507 0 1
-16.925364 -19.385149 0.89744055 26
-10.654878 -8.5506468 -0.95049703 9
-16.890846 -19.338789 -0.89991271 1
-9.5006504 -7.6113505 -1.7016788 8
-10.283849 -11.773038 -1.6338254 30
-6.5918245 -5.2694473 -1.7879492 24
-6.5479398 -7.497632 -1.7490727 12
-4.9421844 -3.9380403 -1.8008833 5
-4.8612137 -5.5693583 -1.8330896 6
-34.395679 -31.84185 10.795923 9
-10.173511 -13.556881 4.5260177 25
-21.108921 -19.549305 4.541039 19
-13.29451 -17.654003 4.285058 25
-21.060919 -19.504848 2.5083423 28
nan nan nan 0
-21.029581 -19.469011 0.49961871 31
-12.673126 -16.755438 1.0991858 37
-20.98337 -19.419436 -1.5015345 9
-14.062067 -18.585869 -0.40620804 1
-10.350887 -9.573842 -1.7244358 24
-10.284415 -13.59583 -1.4854352 25
-6.5953622 -6.0989261 -1.7361017 13
-6.7281561 -8.9015522 -1.7637862 10
-4.9887414 -4.6089549 -1.8092607 6
-4.8043785 -6.3702631 -1.8311417 6
nan nan nan 0
-29.919271 -34.13728 11.292202 13
-24.747698 -19.704643 4.4410133 22
-14.47834 -16.494646 3.8598475 24
-24.691107 -19.673656 2.1996725 34
-15.178629 -17.268295 2.4127781 24
-6.8656964 -5.4762998 0 9
-17.042501 -19.375517 0.89988351 28
-10.590534 -8.4354315 -0.94197315 9
-10.390123 -11.807106 -0.55075043 8
-6.8263803 -5.4294362 -1.2178648 16
-10.318719 -11.725933 -1.6325232 29
-6.590014 -5.2285433 -1.7822269 27
-6.5591168 -7.4550939 -1.7447313 9
-4.964129 -3.9258573 -1.8036379 5
-4.8847961 -5.5551476 -1.8342983 6
-34.661041 -31.852381 10.84253 9
-10.255165 -13.561891 4.5402341 25
-21.258604 -19.543665 4.5578184 23
-13.212299 -17.411579 4.237875 23
-21.222111 -19.510113 2.5190189 24
-13.422351 -17.643757 2.7138231 20
-21.185461 -19.469603 0.50162578 23
-12.7632 -16.746613 1.1016718 31
-10.489876 -9.6380177 -0.74722278 4
-10.340859 -13.561923 -0.29708597 21
-10.35666 -9.5089912 -1.719568 27
-10.296448 -13.508515 -1.4799988 27
-6.5995893 -6.0581193 -1.7313402 13
-6.754755 -8.8689728 -1.76222 10
-5.0127211 -4.5971665 -1.8118472 6
-4.8276944 -6.3526115 -1.8311417 6
-40.530678 -32.221836 10.988977 9
-29.919271 -34.13728 11.292202 13
-24.761257 -19.715437 4.443449 22
-14.47834 -16.494646 3.8598475 24
-24.691107 -19.673656 2.1996725 34
-15.178629 -17.268295 2.4127781 24
-6.8656964 -5.4762998 0 9
-17.042501 -19.375517 0.89988351 28
-10.590534 -8.4354315 -0.94197315 9
-17.017723 -19.340532 -0.90289408 1
-6.8263803 -5.4294362 -1.2178648 16
-10.318719 -11.725933 -1.6325232 29
-6.590014 -5.2285433 -1.7822269 27
-6.5591168 -7.4550939 -1.7447313 9
-4.964129 -3.9258573 -1.8036379 5
-4.8847961 -5.5551476 -1.8342983 6
-34.661041 -31.852381 10.84253 9
-10.255165 -13.561891 4.5402341 25
-21.258604 -19.543665 4.5578184 23
-13.212299 -17.411579 4.237875 23
-21.222111 -19.510113 2.5190189 24
-13.422351 -17.643757 2.7138231 20
-21.185461 -19.469603 0.50162578 23
-12.7632 -16.746613 1.1016718 31
-21.109564 -19.393063 -1.5054728 5
-14.172515 -18.589869 -0.4074297 1
-10.35666 -9.5089912 -1.719568 27
-10.296448 -13.508515 -1.4799988 27
-6.5995893 -6.0581193 -1.7313402 13
-6.754755 -8.8689728 -1.76222 10
-5.0127211 -4.5971665 -1.8118472 6
-4.8276944 -6.3526115 -1.8311417 6
nan nan nan 0
-30.04788 -34.043545 11.295826 31
-24.948408 -19.722521 4.4646726 22
-14.534198 -16.442162 3.8594139 32
-24.871128 -19.675531 2.2095881 35
-15.276713 -17.25803 2.4187887 24
-6.8730078 -5.4429941 0 9
-17.176292 -19.390722 0.90337348 26
-10.570998 -8.3597527 -0.93762422 6
-10.393167 -11.727753 -0.54873371 7
-6.8277974 -5.3917737 -1.2147412 32
-10.202948 -11.513042 -1.6077801 24
-6.6043816 -5.2024841 -1.7811865 26
-6.5965266 -7.4450545 -1.7477702 8
-4.9740205 -3.90554 -1.8022606 5
-4.9057651 -5.5398793 -1.8349026 6
-34.899784 -31.847784 10.882399 9
-10.34779 -13.585581 4.560266 24
-21.412411 -19.547585 4.576159 17
-13.298325 -17.398506 4.2459774 29
-21.371016 -19.50979 2.5286059 22
-13.455189 -17.559368 2.7080424 20
-21.353003 -19.486513 0.50398183 23
-12.756225 -16.616787 1.0960457 30
-10.503165 -9.5828342 -0.74577874 7
-10.293771 -13.402809 -0.29438084 17
-10.360448 -9.4460363 -1.7147001 32
-10.363247 -13.498178 -1.4828258 24
-6.6025543 -6.0185151 -1.7265784 14
-6.7856727 -8.8453398 -1.76222 10
-5.0269523 -4.5780158 -1.8112006 6
-4.8542786 -6.3415265 -1.8328263 6
-40.850235 -32.243778 11.045068 9
-30.04788 -34.043545 11.295826 31
-24.948408 -19.722521 4.4646726 22
-14.534198 -16.442162 3.8594139 32
-24.871128 -19.675531 2.2095881 35
-15.276713 -17.25803 2.4187887 24
-6.8730078 -5.4429941 0 9
-17.176292 -19.390722 0.90337348 26
-10.570998 -8.3597527 -0.93762422 6
-17.136494 -19.338984 -0.90561229 1
-6.8277974 -5.3917737 -1.2147412 32
-10.202948 -11.513042 -1.6077801 24
-6.6043816 -5.2024841 -1.7811865 26
-6.5965266 -7.4450545 -1.7477702 8
-4.9740205 -3.90554 -1.8022606 5
-4.9057651 -5.5398793 -1.8349026 6
-34.899784 -31.847784 10.882399 9
-10.34779 -13.585581 4.560266 24
-21.412411 -19.547585 4.576159 17
-13.298325 -17.398506 4.2459774 29
-21.371016 -19.50979 2.5286059 22
-13.455189 -17.559368 2.7080424 20
-21.353003 -19.486513 0.50398183 23
-12.756225 -16.616787 1.0960457 30
-19.493124 -17.783169 -1.3856179 1
-14.290589 -18.609682 -0.4089568 1
-10.360448 -9.4460363 -1.7147001 32
-10.363247 -13.498178 -1.4828258 24
-6.6025543 -6.0185151 -1.7265784 14
-6.7856727 -8.8453398 -1.76222 10
-5.0269523 -4.5780158 -1.8112006 6
-4.8542786 -6.3415265 -1.8328263 6
nan nan nan 0
-30.163834 -33.947346 11.297034 39
-25.093515 -19.702353 4.4789376 13
-14.573915 -16.377319 3.8555107 31
-25.067636 -19.696165 2.2212429 34
-15.328897 -17.201706 2.4180048 6
-6.8772593 -5.4093599 0 9
-17.29537 -19.395197 0.90625262 26
-10.582969 -8.3123331 -0.93623263 5
-10.355501 -11.607452 -0.54470021 6
-6.8319979 -5.3584137 -1.2123117 32
-10.231139 -11.468012 -1.6062173 25
-6.6004052 -5.1639915 -1.7754643 25
-6.6097102 -7.410275 -1.7447313 13
-4.9926324 -3.8934538 -1.8043265 5
-4.9289508 -5.5290151 -1.8367158 6
-35.182091 -31.892214 10.937428 9
-10.389846 -13.547358 4.5589733 26
-21.559435 -19.551111 4.593719 13
-13.408319 -17.422394 4.2626581 23
-21.52231 -19.517443 2.5388467 22
-13.442122 -17.4223 2.6937435 21
-21.498995 -19.489462 0.50590158 23
-12.780731 -16.534883 1.093429 37
-10.518235 -9.5328646 -0.74459726 2
-14.401138 -18.625481 -0.410353 28
-10.356765 -9.3799829 -1.7089195 25
-10.371408 -13.416439 -1.4776069 24
-6.6024613 -5.9784708 -1.7213405 14
-6.8149676 -8.8227892 -1.76222 12
-5.0474796 -4.5661793 -1.8131404 6
-4.878253 -6.3292551 -1.8339493 6
-41.120525 -32.236366 11.089212 9
-30.163834 -33.947346 11.297034 39
-25.128571 -19.729868 4.4852009 22
-14.573915 -16.377319 3.8555107 31
-25.067636 -19.696165 2.2212429 34
-17.351604 -19.478788 2.7381232 18
-6.8772593 -5.4093599 0 9
-17.29537 -19.395197 0.90625262 26
-10.582969 -8.3123331 -0.93623263 5
-17.248756 -19.336123 -0.90815514 1
-6.8310628 -5.3596058 -1.2123117 32
-10.231139 -11.468012 -1.6062173 25
-6.599504 -5.1651435 -1.7754643 25
-6.6097102 -7.410275 -1.7447313 13
-4.9919524 -3.894325 -1.8043265 5
-4.9289508 -5.5290151 -1.8367158 6
-35.176525 -31.898352 10.937428 9
-10.389846 -13.547358 4.5589733 26
-21.556023 -19.554874 4.593719 13
-13.408319 -17.422394 4.2626581 23
-21.518904 -19.521198 2.5388467 22
-13.442122 -17.4223 2.6937435 21
-21.495592 -19.493216 0.50590158 23
-12.780731 -16.534883 1.093429 37
-19.715374 -17.87274 -1.3974327 5
-14.397892 -18.627989 -0.410353 28
-10.355127 -9.3817892 -1.7089195 25
-10.369066 -13.418248 -1.4776069 24
-6.6024613 -5.9784708 -1.7213405 14
-6.8134274 -8.8239794 -1.76222 12
-5.0466824 -4.56706 -1.8131404 6
-4.8771486 -6.3301063 -1.8339493 6
nan nan nan 0
-30.178617 -33.726135 11.25838 41
-25.304684 -19.725731 4.5043368 4
-14.709856 -16.414366 3.8763278 23
-25.258167 -19.703634 2.2320282 34
-17.419493 -19.418104 2.7381232 37
-6.8941283 -5.3837829 0 9
-17.419718 -19.397915 0.90921909 27
-10.716178 -8.3565912 -0.94545227 8
-10.405972 -11.582389 -0.54522634 5
-6.8262815 -5.317481 -1.2081468 34
-10.249509 -11.40818 -1.6028314 29
-6.6078343 -5.1345778 -1.7728631 25
-6.6421161 -7.3944855 -1.7464678 10
-5.0055156 -3.8768761 -1.8043265 5
-4.9465995 -5.5099697 -1.8361114 6
-35.427059 -31.900885 10.980666 9
-10.462162 -13.543505 4.5699592 22
-21.719561 -19.565449 4.6140108 15
-13.482583 -17.392942 4.2669473 21
-21.677588 -19.527634 2.5495234 22
-13.586577 -17.483051 2.7104764 34
-21.654528 -19.500017 0.50803953 23
-12.835304 -16.486229 1.0931672 37
-10.520101 -9.4712095 -0.74249685 3
-14.516558 -18.646664 -0.41188014 29
-10.369365 -9.3289919 -1.7058772 26
-10.377611 -13.332827 -1.4721705 25
-6.6068625 -5.9406219 -1.7170551 15
-6.8457031 -8.8020926 -1.7626116 10
-5.0590005 -4.5461884 -1.8118472 6
-4.8992147 -6.3130431 -1.8339493 6
-41.447025 -32.259338 11.14686 9
-30.178617 -33.726135 11.25838 41
-25.304684 -19.725731 4.5043368 4
-14.709856 -16.414366 3.8763278 23
-25.258167 -19.703634 2.2320282 34
-17.422882 -19.41506 2.7381232 37
-6.8941283 -5.3837829 0 9
-17.419718 -19.397915 0.90921909 27
-10.716178 -8.3565912 -0.94545227 8
-17.377918 -19.34457 -0.91139948 1
-6.8272095 -5.3162899 -1.2081468 34
-10.249509 -11.40818 -1.6028314 29
-6.6087303 -5.1334238 -1.7728631 25
-6.6421161 -7.3944855 -1.7464678 10
-5.0061927 -3.8760026 -1.8043265 5
-4.9465995 -5.5099697 -1.8361114 6
-35.432625 -31.894703 10.980666 9
-10.462162 -13.543505 4.5699592 22
-21.722977 -19.561657 4.6140108 15
-13.482583 -17.392942 4.2669473 21
-21.680998 -19.523849 2.5495234 22
-13.586577 -17.483051 2.7104764 34
-21.65793 -19.496239 0.50803953 23
-12.835304 -16.486229 1.0931672 37
-19.559896 -17.601646 -1.3818108 5
-14.519808 -18.644135 -0.41188014 29
-10.370993 -9.3271818 -1.7058772 26
-10.379938 -13.331017 -1.4721705 25
-6.6068625 -5.9406219 -1.7170551 15
-6.847239 -8.8008966 -1.7626116 10
-5.0597935 -4.5453053 -1.8118472 6
-4.9003167 -6.3121881 -1.8339493 6
nan nan nan 0
-30.139605 -33.435101 11.197984 18
-25.511932 -19.73736 4.5283442 3
-14.802912 -16.396893 3.8850014 16
-25.456438 -19.70862 2.2431614 31
-17.545609 -19.408251 2.7462239 37
-6.8841643 -5.3355203 0 9
-17.559414 -19.409908 0.91279626 25
nan nan nan 0
-10.376271 -11.464508 -0.54145586 5
-6.8231335 -5.2730761 -1.203982 32
-10.349642 -11.435067 -1.6119473 27
-6.6061897 -5.0927558 -1.7671409 22
-6.6642189 -7.3646135 -1.7451656 14
-5.0222716 -3.859091 -1.8050153 5
-4.9683886 -5.4936023 -1.8367158 6
-35.741852 -31.93667 11.040188 9
-10.507281 -13.499349 4.5680203 29
-21.884743 -19.562544 4.6331315 14
-13.6731 -17.505903 4.3069811 21
-21.839684 -19.522261 2.5597641 22
-13.606211 -17.376469 2.7016535 31
-21.813122 -19.491671 0.51000291 23
-12.818618 -16.340841 1.0866252 35
-10.51915 -9.3974848 -0.73987138 2
-14.642039 -18.659626 -0.41340721 26
-10.39215 -9.2775412 -1.7037475 31
-10.405677 -13.263483 -1.4689087 24
-6.6066165 -5.89676 -1.7113411 15
-6.8748822 -8.7699089 -1.7614371 10
-5.072814 -4.5235162 -1.810554 6
-4.9264193 -6.2980247 -1.8350724 6
-41.799168 -32.288082 11.209702 9
-30.139605 -33.435101 11.197984 18
-25.511932 -19.73736 4.5283442 3
-17.69813 -19.604471 4.6461287 1
-25.456438 -19.70862 2.2431614 31
-17.545609 -19.408251 2.7462239 37
-6.8940477 -5.343173 0 9
-17.559414 -19.409908 0.91279626 25
-10.673211 -8.2574148 -0.93884194 5
-17.524137 -19.364115 -0.91534537 1
-6.8231335 -5.2730761 -1.203982 32
-10.349646 -11.435063 -1.6119473 27
-6.6061897 -5.0927558 -1.7671409 22
-6.665504 -7.3634501 -1.7451656 14
-5.0222716 -3.859091 -1.8050153 5
-4.9693475 -5.4927354 -1.8367158 6
-35.741852 -31.93667 11.040188 9
-10.509637 -13.497515 4.5680203 29
-21.884743 -19.562544 4.6331315 14
-13.676155 -17.503515 4.3069811 21
-21.839684 -19.522261 2.5597641 22
-13.609244 -17.374094 2.7016535 31
-21.813122 -19.491671 0.51000291 23
-12.82147 -16.338604 1.0866252 35
-19.518145 -17.435043 -1.374328 9
-14.645295 -18.65707 -0.41340721 26
-10.39215 -9.2775412 -1.7037475 31
-10.407991 -13.261666 -1.4689087 24
-6.6076455 -5.8956065 -1.7113411 15
-6.8764124 -8.7687101 -1.7614371 10
-5.0736032 -4.5226312 -1.810554 6
-4.9264193 -6.2980247 -1.8350724 6
nan nan nan 0
-30.272438 -33.347652 11.204023 25
-25.659218 -19.708498 4.5422621 2
-17.708494 -19.478807 4.6309495 30
-25.643728 -19.710819 2.2535989 28
-17.676847 -19.416756 2.7561543 35
-6.8888721 -5.3007922 0 9
-17.684265 -19.411299 0.91576278 25
-6.9372439 -5.3302884 -0.60780317 114
-10.385938 -11.394975 -0.53987753 6
-6.8218489 -5.2341657 -1.2005113 30
-10.371078 -11.378649 -1.6090823 23
-6.6161571 -5.0637245 -1.7650602 24
-6.6928244 -7.3419576 -1.7455996 13
-5.0318885 -3.8386235 -1.8036379 6
-4.9884906 -5.4753551 -1.8367158 6
-35.987961 -31.931353 11.08174 26
-10.538811 -13.437941 4.560266 23
-22.052624 -19.574545 4.6542039 15
-14.394176 -18.290873 4.5133467 21
-22.006416 -19.533524 2.5713122 27
-13.574541 -17.205681 2.6827908 27
-21.989473 -19.511625 0.51253349 26
-12.838187 -16.242817 1.0832235 32
-10.527608 -9.3391743 -0.73816478 3
-14.747527 -18.652903 -0.41445437 28
-10.365046 -9.1885414 -1.6940118 30
-10.482012 -13.260432 -1.4728228 20
-6.618999 -5.8643699 -1.7089603 16
-6.910038 -8.7485294 -1.76222 9
-5.0947847 -4.5096936 -1.8124938 6
-4.9468665 -6.2788749 -1.8345107 6
-42.10569 -32.290783 11.261638 9
-30.272438 -33.347652 11.204023 25
-41.954762 -32.22155 7.4297552 1
-17.708494 -19.478807 4.6309495 30
-25.643728 -19.710819 2.2535989 28
-17.676847 -19.416756 2.7561543 35
-6.8888721 -5.3007922 0 9
-17.684265 -19.411299 0.91576278 25
-6.9363136 -5.3314986 -0.60780317 114
-17.64884 -19.365616 -0.91832662 1
-6.8218489 -5.2341657 -1.2005113 30
-10.371074 -11.378654 -1.6090823 23
-6.6161571 -5.0637245 -1.7650602 24
-6.6915426 -7.3431258 -1.7455996 13
-5.0318885 -3.8386235 -1.8036379 6
-4.9875345 -5.4762259 -1.8367158 6
-35.987961 -31.931353 11.08174 26
-10.536466 -13.439778 4.560266 23
-22.04339 -19.566349 4.6522527 15
-14.390983 -18.293385 4.5133467 21
-22.006416 -19.533524 2.5713122 27
-13.571538 -17.20805 2.6827908 27
-21.989473 -19.511625 0.51253349 26
-12.835351 -16.245056 1.0832235 32
-19.515383 -17.310484 -1.3698647 18
-14.744273 -18.655476 -0.41445437 28
-10.365046 -9.1885414 -1.6940118 30
-10.479696 -13.26226 -1.4728228 20
-6.6179748 -5.8655252 -1.7089603 16
-6.9085116 -8.7497358 -1.76222 9
-5.093998 -4.5105829 -1.8124938 6
-4.9468665 -6.2788749 -1.8345107 6
nan nan nan 0
-30.43195 -33.300816 11.222142 1
nan nan nan 0
-17.812881 -19.463572 4.6413579 31
-25.819975 -19.710403 2.2633405 6
-17.794889 -19.416691 2.7645166 36
-6.8865414 -5.2627482 0 9
-17.785686 -19.393061 0.91768223 24
-6.9142947 -5.2782211 -0.60432404 168
-10.410156 -11.345742 -0.53917599 6
-6.8234086 -5.1995173 -1.1977347 31
-10.361688 -11.292896 -1.6017896 24
-6.6173325 -5.0299263 -1.7608985 24
-6.7175202 -7.3227096 -1.7460337 10
-5.0484233 -3.8248162 -1.8050153 5
-5.0155001 -5.4703879 -1.8403422 6
-36.060749 -31.782845 11.071633 68
-10.570505 -13.391492 4.5557427 8
-22.208179 -19.581326 4.6733246 19
-14.396726 -18.176296 4.4961891 21
-22.162611 -19.541145 2.5819888 29
-13.679435 -17.227087 2.6928303 30
-22.127192 -19.503056 0.51423514 29
-12.907797 -16.225855 1.0847934 28
-10.543533 -9.2910089 -0.73711455 2
-14.852737 -18.665165 -0.41576332 26
-10.389872 -9.1492004 -1.693099 27
-10.540668 -13.248879 -1.4752148 22
-6.6189656 -5.8273335 -1.7041987 13
-6.9313455 -8.7190428 -1.760654 10
-5.1089277 -4.4936657 -1.8124938 6
-4.9721999 -6.2681656 -1.8361955 6
-42.446003 -32.32877 11.323959 9
-30.43195 -33.300816 11.222142 1
-42.28973 -32.25639 7.4701157 1
-17.812881 -19.463572 4.6413579 31
-25.819975 -19.710403 2.2633405 6
-17.794889 -19.416691 2.7645166 36
-6.8865414 -5.2627482 0 9
-17.785686 -19.393061 0.91768223 24
-6.9152155 -5.2770147 -0.60432404 168
-17.778826 -19.37879 -0.92174631 1
-6.8234086 -5.1995173 -1.1977347 31
-10.361692 -11.292892 -1.6017896 24
-6.6173325 -5.0299263 -1.7608985 24
-6.7187982 -7.321537 -1.7460337 10
-5.0484233 -3.8248162 -1.8050153 5
-5.0164547 -5.4695125 -1.8403422 6
-36.060749 -31.782845 11.071633 68
-10.572841 -13.389646 4.5557427 8
-22.208179 -19.581326 4.6733246 19
-14.399899 -18.173782 4.4961891 21
-22.162611 -19.541145 2.5819888 29
-13.682442 -17.224701 2.6928303 30
-22.127192 -19.503056 0.51423514 29
-12.910629 -16.2236 1.0847934 28
-19.366617 -17.064133 -1.3554244 19
-14.859107 -18.666485 -0.41585055 26
-10.389872 -9.1492004 -1.693099 27
-10.54298 -13.24704 -1.4752148 22
-6.6199832 -5.8261781 -1.7041987 13
-6.9328671 -8.7178335 -1.760654 10
-5.1097116 -4.492774 -1.8124938 6
-4.9721999 -6.2681656 -1.8361955 6
nan nan nan 0
-32.385746 -35.179184 11.895555 2
nan nan nan 0
-17.945841 -19.465134 4.6574049 30
-26.021269 -19.713507 2.2746475 6
-17.919901 -19.409801 2.7728789 32
-6.8838649 -5.2208652 0 8
-17.924459 -19.401154 0.92117214 27
-6.928544 -5.2471194 -0.6038022 246
-10.373671 -11.223103 -0.53514248 7
-6.8226657 -5.1595502 -1.1942641 29
-10.34564 -11.192749 -1.5929343 20
-6.6161942 -4.9909225 -1.7556964 23
-6.7439175 -7.2950544 -1.7455996 12
-5.0585642 -3.8034012 -1.8036379 5
-5.0381136 -5.4528713 -1.8409466 6
-36.076157 -31.562241 11.040749 63
nan nan nan 0
-22.378286 -19.585989 4.6940069 28
-13.414781 -16.803053 4.1687694 25
-22.335287 -19.548349 2.593755 27
-13.858642 -17.315886 2.71504 27
-22.318933 -19.527157 0.5170275 27
-13.229181 -16.499561 1.1065129 25
-10.539928 -9.2194328 -0.73448902 2
-14.966512 -18.660656 -0.41694134 30
-10.402781 -9.0930967 -1.6897523 31
-10.515146 -13.113082 -1.4645596 20
-6.6246552 -5.7873464 -1.6999133 14
-6.9647722 -8.6923647 -1.760654 10
-5.137063 -4.483541 -1.8163736 6
-4.9951401 -6.2498994 -1.8361955 6
-42.784664 -32.339592 11.382647 9
-32.385746 -35.179184 11.895555 2
-42.589283 -32.238625 7.5021253 4
-17.945841 -19.465134 4.6574049 30
-26.021269 -19.713507 2.2746475 6
-17.919901 -19.409801 2.7728789 32
-6.8838649 -5.2208652 0 8
-17.924459 -19.401154 0.92117214 27
-6.928544 -5.2471194 -0.6038022 246
-17.907389 -19.375885 -0.92472768 1
-6.8226657 -5.1595502 -1.1942641 29
-10.34564 -11.192749 -1.5929343 20
-6.6161942 -4.9909225 -1.7556964 23
-6.7439175 -7.2950544 -1.7455996 12
-5.0585642 -3.8034012 -1.8036379 5
-5.0381136 -5.4528713 -1.8409466 6
-36.076157 -31.562241 11.040749 63
nan nan nan 0
-22.361561 -19.571352 4.6904945 28
-13.414781 -16.803053 4.1687694 25
-22.335287 -19.548349 2.593755 27
-13.858642 -17.315886 2.71504 27
-22.318933 -19.527157 0.5170275 27
-13.229181 -16.499561 1.1065129 25
-22.377657 -19.571638 -1.5613964 7
-14.961821 -18.654804 -0.41681045 30
-10.402781 -9.0930967 -1.6897523 31
-10.515146 -13.113082 -1.4645596 20
-6.6246552 -5.7873464 -1.6999133 14
-6.9647722 -8.6923647 -1.760654 10
-5.137063 -4.483541 -1.8163736 6
-4.9951401 -6.2498994 -1.8361955 6
nan nan nan 0
-32.615547 -35.181564 11.934813 2
nan nan nan 0
-18.080681 -19.47455 4.6747522 32
-26.183607 -19.693001 2.2828233 6
-18.063719 -19.429075 2.7846382 30
-6.8880615 -5.1862845 0 8
-18.061842 -19.413471 0.92474937 25
-6.9468174 -5.2229028 -0.6038022 168
-10.446825 -11.223404 -0.53689623 6
-6.824789 -5.1238189 -1.1914874 31
-10.384647 -11.156569 -1.5929343 21
-6.6198702 -4.9575443 -1.752055 23
-6.7626319 -7.2642598 -1.7438631 10
-5.0775909 -3.7900293 -1.805704 5
-5.0587687 -5.4370284 -1.8415509 6
-36.08128 -31.345058 11.008742 53
nan nan nan 0
-22.532261 -19.582262 4.711957 25
-13.457976 -16.736996 4.1640029 27
-22.495504 -19.550312 2.6044314 21
-13.931456 -17.282864 2.717474 24
-22.466213 -19.517979 0.51886004 20
-13.83396 -17.131275 1.152176 24
-10.560737 -9.1727638 -0.73370141 2
-15.080238 -18.668583 -0.41829389 25
-10.440083 -9.0616083 -1.6906651 23
-10.249559 -12.690643 -1.4212861 25
-6.6373997 -5.7577553 -1.6980085 12
-6.9919734 -8.6641569 -1.759871 10
-5.1472063 -4.4608388 -1.8144337 6
-5.0260844 -6.2438159 -1.8395644 6
-43.147675 -32.377907 11.449123 41
-32.615547 -35.181564 11.934813 2
-42.933128 -32.26376 7.5428333 9
-18.080681 -19.47455 4.6747522 32
-26.183607 -19.693001 2.2828233 6
-18.063719 -19.429075 2.7846382 30
-6.8880615 -5.1862845 0 8
-18.061842 -19.413471 0.92474937 25
-6.9459062 -5.2241149 -0.6038022 168
-18.036186 -19.379107 -0.92788434 1
-6.824789 -5.1238189 -1.1914874 31
-10.384643 -11.156574 -1.5929343 21
-6.6198702 -4.9575443 -1.752055 23
-6.761364 -7.26544 -1.7438631 10
-5.0775909 -3.7900293 -1.805704 5
-5.0578203 -5.437912 -1.8415509 6
-36.08128 -31.345058 11.008742 53
nan nan nan 0
-22.532261 -19.582262 4.711957 25
-13.455054 -16.739346 4.1640029 27
-22.495504 -19.550312 2.6044314 21
-13.92844 -17.285294 2.717474 24
-22.466213 -19.517979 0.51886004 20
-13.83097 -17.133688 1.152176 24
-19.041477 -16.537169 -1.324312 5
-15.07698 -18.671217 -0.41829389 25
-10.440083 -9.0616083 -1.6906651 23
-10.247344 -12.692432 -1.4212861 25
-6.6363945 -5.7589135 -1.6980085 12
-6.9904609 -8.6653776 -1.759871 10
-5.1464276 -4.4617372 -1.8144337 6
-5.0260844 -6.2438159 -1.8395644 6
-6.7298741 -5.0197082 1.7756658 4
-29.77269 -31.90193 10.854937 16
nan nan nan 0
-18.205677 -19.479246 4.6903648 34
-26.48856 -19.785124 2.3036981 31
-18.187508 -19.432608 2.7937844 30
-6.8851938 -5.1484528 0 8
-18.204679 -19.437359 0.92876279 23
-6.9591932 -5.1980696 -0.60345429 112
-10.441283 -11.143115 -0.53470409 5
-6.8437295 -5.1026382 -1.1918346 31
-10.373987 -11.071267 -1.5856414 19
-6.6225338 -4.9253569 -1.7484136 20
-6.7887855 -7.2465734 -1.7447313 10
-5.0843358 -3.7688808 -1.8036379 5
-5.0791397 -5.4246521 -1.8427597 6
-36.070671 -31.126564 10.973927 39
nan nan nan 0
-22.701752 -19.597788 4.7338095 23
-13.516665 -16.702265 4.1659093 32
-22.656361 -19.558599 2.6155438 28
-13.790314 -16.998095 2.6794441 24
-22.623545 -19.523386 0.52099794 20
-14.01522 -17.244684 1.162774 23
-10.519259 -9.0757284 -0.72871292 9
-15.179802 -18.671553 -0.41942832 24
-10.447519 -9.0074959 -1.6870141 21
-10.246978 -12.606189 -1.4154147 26
-6.6275659 -5.7128439 -1.690866 13
-7.016046 -8.6383133 -1.759088 10
-5.1666861 -4.4493728 -1.8163736 6
-5.0498281 -6.2309012 -1.8406875 6
-43.219509 -32.208344 11.439775 66
-29.77269 -31.90193 10.854937 16
-43.147026 -32.20116 7.5616221 67
-18.205677 -19.479246 4.6903648 34
-26.48856 -19.785124 2.3036981 31
-18.184116 -19.43578 2.7937844 30
-6.8851938 -5.1484528 0 8
-18.204679 -19.437359 0.92876279 23
-6.9591932 -5.1980696 -0.60345429 112
-18.166965 -19.390301 -0.93130404 1
-6.8428383 -5.1038327 -1.1918346 31
-10.373987 -11.071267 -1.5856414 19
-6.6216741 -4.9265127 -1.7484136 20
-6.7887855 -7.2465734 -1.7447313 10
-5.0836778 -3.769768 -1.8036379 5
-5.0791397 -5.4246521 -1.8427597 6
-36.065239 -31.132856 10.973927 39
nan nan nan 0
-22.69833 -19.601753 4.7338095 23
-13.516665 -16.702265 4.1659093 32
-22.652945 -19.562553 2.6155438 28
-13.790314 -16.998095 2.6794441 24
-22.620138 -19.527332 0.52099794 20
-14.01522 -17.244684 1.162774 23
-19.150043 -16.526197 -1.3282503 4
-15.176546 -18.674196 -0.41942832 24
-10.445947 -9.0093193 -1.6870141 21
-10.244777 -12.607977 -1.4154147 26
-6.6275659 -5.7128439 -1.690866 13
-7.0145388 -8.6395378 -1.759088 10
-5.1659093 -4.450274 -1.8163736 6
-5.0487404 -6.2317829 -1.8406875 6
-6.7552204 -5.0020032 1.7777432 9
-29.832367 -31.743006 10.836213 77
nan nan nan 0
-18.347805 -19.494471 4.7094474 31
-26.677671 -19.781656 2.3141356 32
-18.321749 -19.446388 2.8044987 32
-6.8910747 -5.1154528 0 14
-18.337553 -19.442766 0.93207824 24
-6.9752927 -5.1722617 -0.60328037 39
-10.348104 -10.966659 -0.52795231 6
-6.9004211 -5.1093616 -1.198776 24
-10.352854 -10.971685 -1.5765256 23
-6.6211209 -4.8903027 -1.7437317 22
-6.8157287 -7.2246232 -1.7451656 9
-5.1026144 -3.7562702 -1.805704 6
-5.0997081 -5.4086547 -1.8433641 6
-36.266178 -31.086046 11.002004 26
-30.079836 -37.045479 12.759311 1
-22.854723 -19.597944 4.7521501 20
-13.627587 -16.719673 4.1821136 28
-22.811846 -19.561172 2.6260026 27
-13.221697 -16.181108 2.5577478 24
-22.794445 -19.539351 0.52344126 16
-14.07533 -17.195656 1.162774 20
-10.51707 -9.0131826 -0.7264812 8
-15.297039 -18.688816 -0.42095542 27
-10.469792 -8.9663467 -1.6857973 22
-10.35968 -12.658892 -1.4252002 21
-6.6586561 -5.6992483 -1.693723 10
-7.0446534 -8.6149998 -1.759088 10
-5.1814122 -4.4322147 -1.8163736 6
-5.0689235 -6.2122331 -1.8401262 6
-41.283047 -30.541931 10.89861 23
-29.832367 -31.743006 10.836213 77
-41.243996 -30.55757 7.209166 25
-18.347805 -19.494471 4.7094474 31
-26.677671 -19.781656 2.3141356 32
-18.325142 -19.44319 2.8044987 32
-6.8910747 -5.1154528 0 14
-18.337553 -19.442766 0.93207824 24
-6.9752927 -5.1722617 -0.60328037 39
-18.297974 -19.394012 -0.93454838 1
-6.9013128 -5.1081576 -1.198776 24
-10.352854 -10.971685 -1.5765256 23
-6.621974 -4.8891468 -1.7437317 22
-6.8157287 -7.2246232 -1.7451656 9
-5.1032705 -3.7553792 -1.805704 6
-5.0997081 -5.4086547 -1.8433641 6
-36.271603 -31.079716 11.002004 26
-30.079836 -37.045479 12.759311 1
-22.858143 -19.593956 4.7521501 20
-13.627587 -16.719673 4.1821136 28
-22.81526 -19.557192 2.6260026 27
-13.221697 -16.181108 2.5577478 24
-22.797855 -19.53537 0.52344126 16
-14.07533 -17.195656 1.162774 20
-18.751621 -16.06288 -1.2964814 3
-15.300297 -18.686152 -0.42095542 27
-10.471356 -8.9645195 -1.6857973 22
-10.361889 -12.657083 -1.4252002 21
-6.6586561 -5.6992483 -1.693723 10
-7.0461574 -8.6137705 -1.759088 10
-5.1821856 -4.4313097 -1.8163736 6
-5.0700078 -6.2113485 -1.8401262 6
-6.7281666 -4.9439282 1.7657982 31
-29.843443 -31.522457 10.798164 77
-6.7356892 -4.9566479 1.1704457 18
-18.481804 -19.493204 4.7254944 32
-26.884594 -19.782761 2.3257904 41
-18.451059 -19.433596 2.812861 32
-6.9339399 -5.1079421 0 4
-18.474083 -19.444262 0.93539375 25
-7.0062585 -5.1555238 -0.60432404 1
-10.395114 -10.935903 -0.52830309 6
-6.9619064 -5.1135864 -1.2060645 24
-10.338188 -10.875991 -1.5681911 19
-6.6339293 -4.8605103 -1.7421709 26
-6.8353801 -7.1924539 -1.7434291 9
-5.1189423 -3.738066 -1.8063927 5
-5.1245084 -5.395205 -1.8451772 6
-36.541153 -31.079136 11.049171 25
-29.963133 -36.626534 12.652687 6
-23.025726 -19.59165 4.7720518 25
-13.740161 -16.732214 4.1978416 35
-22.993013 -19.56381 2.6382043 27
-13.37394 -16.245588 2.5756979 28
-22.97403 -19.540749 0.525841 26
-13.828598 -16.768301 1.1372603 24
-10.538285 -8.9614134 -0.72556227 3
-15.408439 -18.67816 -0.42204621 25
-10.468211 -8.8955536 -1.6800166 21
-10.395536 -12.603646 -1.4234606 18
-6.664535 -5.6620946 -1.6899136 9
-7.0792494 -8.5897932 -1.7594794 10
-5.2039165 -4.4169736 -1.8183135 6
-5.1004705 -6.2021365 -1.8429338 6
-6.7281666 -4.9439282 1.7657982 31
-29.680002 -31.349806 10.738976 1
-41.251987 -30.329948 7.1910734 18
-18.481804 -19.493204 4.7254944 32
-26.884594 -19.782761 2.3257904 41
-18.451059 -19.433596 2.812861 32
-6.9339399 -5.1079421 0 4
-18.474083 -19.444262 0.93539375 25
-10.590418 -7.7874293 -0.91448808 1
-18.436058 -19.397451 -0.93796813 1
-6.9619064 -5.1135864 -1.2060645 24
-10.338193 -10.875986 -1.5681911 19
-6.6339293 -4.8605103 -1.7421709 26
-6.8366346 -7.1912608 -1.7434291 9
-5.1189423 -3.738066 -1.8063927 5
-5.1254497 -5.3943105 -1.8451772 6
-36.541153 -31.079136 11.049171 25
-29.969522 -36.621304 12.652687 6
-23.025726 -19.59165 4.7720518 25
-13.74308 -16.729815 4.1978416 35
-22.993013 -19.56381 2.6382043 27
-13.376775 -16.243252 2.5756979 28
-22.97403 -19.540749 0.525841 26
-13.831523 -16.765888 1.1372603 24
-18.612556 -15.82587 -1.2828288 8
-15.411698 -18.67547 -0.42204621 25
-10.468211 -8.8955536 -1.6800166 21
-10.397737 -12.601832 -1.4234606 18
-6.6655226 -5.6609316 -1.6899136 9
-7.0807481 -8.5885572 -1.7594794 10
-5.2046876 -4.4160657 -1.8183135 6
-5.1004705 -6.2021365 -1.8429338 6
-6.7453828 -4.920413 1.7657982 255
-29.862904 -31.323277 10.765551 73
-6.7249532 -4.9126749 1.1655747 97
-18.616037 -19.498028 4.7424083 32
-27.086412 -19.785872 2.3372717 46
-18.592659 -19.446352 2.8240979 34
-6.9880638 -5.1102529 0 3
-18.610928 -19.451874 0.93888366 23
-10.599402 -7.737186 -0.9129225 14
-10.422859 -10.888721 -0.52777696 6
-7.0057287 -5.1082034 -1.2105764 24
-10.326241 -10.787738 -1.560638 22
-6.6330504 -4.824389 -1.7374891 26
-6.8582916 -7.163795 -1.7425607 9
-5.1261191 -3.7159467 -1.8043265 5
-5.1408954 -5.3728805 -1.8439685 6
-36.815067 -31.091282 11.099148 26
-30.216965 -36.661842 12.703091 9
-23.188292 -19.590832 4.791563 1
-13.831111 -16.717672 4.2068963 28
-23.161995 -19.568611 2.6497526 28
-13.450814 -16.217474 2.5790446 29
-23.139498 -19.542685 0.52806616 28
-13.853277 -16.67333 1.1342509 26
-10.55424 -8.9116898 -0.72451204 2
-15.526314 -18.681162 -0.42339879 29
-10.508684 -8.8669586 -1.681538 22
-10.330277 -12.431344 -1.4082388 23
-6.6796136 -5.6328845 -1.6884851 9
-7.1043792 -8.5561867 -1.7579134 10
-5.2163768 -4.3947592 -1.8170202 6
-5.1205363 -6.1824174 -1.8423721 6
-6.7453828 -4.920413 1.7657982 255
-29.862904 -31.323277 10.765551 73
-6.7249532 -4.9126749 1.1655747 97
-18.616037 -19.498028 4.7424083 32
-27.086412 -19.785872 2.3372717 46
-18.589266 -19.449598 2.8240979 34
-6.9880638 -5.1102529 0 3
-18.610928 -19.451874 0.93888366 23
-10.598052 -7.7390366 -0.9129225 14
-18.57275 -19.405184 -0.94147551 1
-7.0048375 -5.109426 -1.2105764 24
-10.326237 -10.787743 -1.560638 22
-6.6322088 -4.8255463 -1.7374891 26
-6.8570409 -7.1649919 -1.7425607 9
-5.1254702 -3.7168415 -1.8043265 5
-5.1399574 -5.3737774 -1.8439685 6
-36.809639 -31.097708 11.099148 26
-30.210566 -36.667114 12.703091 9
-36.736389 -31.046804 7.5953236 1
-13.828192 -16.720087 4.2068963 28
-23.158581 -19.572655 2.6497526 28
-13.447983 -16.219822 2.5790446 29
-23.136086 -19.546724 0.52806616 28
-13.850367 -16.675747 1.1342509 26
-18.939602 -15.99601 -1.3017324 17
-15.519795 -18.686577 -0.42339879 29
-10.507135 -8.8687925 -1.681538 22
-10.325937 -12.434949 -1.4082388 23
-6.6786299 -5.6340508 -1.6884851 9
-7.1013923 -8.5586662 -1.7579134 10
-5.2148418 -4.3965802 -1.8170202 6
-5.1194572 -6.1833105 -1.8423721 6
-6.7596812 -4.8965826 1.7652787 255
-29.884304 -31.138306 10.735956 71
-6.7432108 -4.8917994 1.1659225 255
-18.743715 -19.501873 4.7584548 31
-27.285124 -19.792572 2.3487527 38
-18.713989 -19.450558 2.8332441 32
-7.0474672 -5.1178813 0 4
-18.729055 -19.445841 0.9415884 25
-10.597404 -7.684824 -0.91066104 10
-10.431176 -10.825305 -0.52637398 5
-7.0638628 -5.1166482 -1.2178648 24
-10.313654 -10.703301 -1.5533452 27
-6.6382608 -4.7963715 -1.7348881 25
-6.8739314 -7.1351194 -1.7408242 9
-5.1397185 -3.7012274 -1.8050153 5
-5.1611133 -5.360199 -1.8451772 6
-37.043194 -31.085087 11.138455 13
-30.251825 -36.470062 12.669488 13
-37.001804 -31.061346 7.6288829 4
-13.878853 -16.668478 4.2054667 30
-23.335903 -19.590218 2.6626079 28
-13.503285 -16.177042 2.579349 20
-23.311838 -19.563084 0.53059679 27
-13.905589 -16.629728 1.1342509 28
-10.540104 -8.8431921 -0.72162396 2
-15.629768 -18.692543 -0.42470771 29
-10.525078 -8.824337 -1.6797124 22
-10.295257 -12.314635 -1.3984532 27
-6.6991577 -5.6134481 -1.6889613 10
-7.1328988 -8.5388613 -1.7586964 9
-5.227541 -4.3777127 -1.8163736 6
-5.1430511 -6.1700444 -1.8434951 7
-6.7596812 -4.8965826 1.7652787 255
-29.884304 -31.138306 10.735956 71
-6.7432108 -4.8917994 1.1659225 255
-18.743715 -19.501873 4.7584548 31
-27.285124 -19.792572 2.3487527 38
-18.713989 -19.450558 2.8332441 32
-7.0474672 -5.1178813 0 4
-18.729055 -19.445841 0.9415884 25
-10.597404 -7.684824 -0.91066104 10
-18.704599 -19.41366 -0.94489521 1
-7.0638628 -5.1166482 -1.2178648 24
-10.313654 -10.703301 -1.5533452 27
-6.6382608 -4.7963715 -1.7348881 25
-6.8739314 -7.1351194 -1.7408242 9
-5.1397185 -3.7012274 -1.8050153 5
-5.1611133 -5.360199 -1.8451772 6
-37.043194 -31.085087 11.138455 13
-30.251825 -36.470062 12.669488 13
-37.001804 -31.061346 7.6288829 4
-13.878853 -16.668478 4.2054667 30
-23.335903 -19.590218 2.6626079 28
-13.503285 -16.177042 2.579349 20
-23.311838 -19.563084 0.53059679 27
-13.905589 -16.629728 1.1342509 28
-19.093916 -16.018148 -1.3086901 6
-15.629768 -18.692543 -0.42470771 29
-10.525078 -8.824337 -1.6797124 22
-10.295257 -12.314635 -1.3984532 27
-6.6991577 -5.6134481 -1.6889613 10
-7.1328988 -8.5388613 -1.7586964 9
-5.227541 -4.3777127 -1.8163736 6
-5.1430511 -6.1700444 -1.8434951 7
-6.7648158 -4.8643975 1.7621627 255
-29.896725 -30.934362 10.701531 68
-6.7522068 -4.8624482 1.1645308 255
-18.888723 -19.515945 4.7779708 28
-27.499773 -19.802118 2.3612773 34
-18.878647 -19.485121 2.847878 31
-7.1078906 -5.12393 0 4
-18.838566 -19.423389 0.94368231 28
-10.579624 -7.6157451 -0.90683395 6
-10.428887 -10.747582 -0.52435726 6
-7.0977669 -5.1035147 -1.2206413 30
-10.369996 -10.686867 -1.5562103 20
-6.6330972 -4.7575045 -1.7291658 25
-6.8987961 -7.1110816 -1.7408242 9
-5.1447835 -3.6776793 -1.8022606 5
-5.1848569 -5.3473768 -1.8469903 6
-38.549587 -32.120453 11.557916 1
-16.265953 -19.467321 6.7786865 4
-38.394196 -32.002323 7.8930645 1
-13.921185 -16.601122 4.2007008 27
-23.51893 -19.604313 2.6756814 26
-14.477574 -17.222172 2.754287 30
-23.481766 -19.566393 0.53290921 27
-13.87191 -16.472219 1.126793 34
-10.52295 -8.7664022 -0.71834207 2
-15.723897 -18.672293 -0.42549309 25
-10.490969 -8.733572 -1.6693683 26
-10.402321 -12.354847 -1.4071515 27
-6.7281466 -5.5978765 -1.6913422 9
-7.1578951 -8.5082417 -1.7575219 10
-5.2427902 -4.3594389 -1.8163736 6
-5.1661224 -6.1539211 -1.8440568 6
-6.7648158 -4.8643975 1.7621627 255
-29.896725 -30.934362 10.701531 68
-6.7522068 -4.8624482 1.1645308 255
-18.888723 -19.515945 4.7779708 28
-27.499773 -19.802118 2.3612773 34
-18.882048 -19.481827 2.847878 31
-7.1078906 -5.12393 0 4
-18.838566 -19.423389 0.94368231 28
-10.579624 -7.6157451 -0.90683395 6
-18.840097 -19.41819 -0.94831491 1
-7.0986571 -5.1022754 -1.2206413 30
-10.369996 -10.686867 -1.5562103 20
-6.6339273 -4.7563467 -1.7291658 25
-6.8987961 -7.1110816 -1.7408242 9
-5.1454253 -3.6767809 -1.8022606 5
-5.1848569 -5.3473768 -1.8469903 6
-38.555191 -32.113728 11.557916 1
-30.267481 -36.230789 12.622961 6
-38.39978 -31.995621 7.8930645 1
-13.921185 -16.601122 4.2007008 27
-23.522352 -19.600208 2.6756814 26
-14.477574 -17.222172 2.754287 30
-23.48518 -19.562296 0.53290921 27
-13.87191 -16.472219 1.126793 34
-20.487856 -17.059847 -1.4000582 8
-15.727151 -18.669552 -0.42549309 25
-10.492494 -8.7317419 -1.6693683 26
-10.404478 -12.353032 -1.4071515 27
-6.7281466 -5.5978765 -1.6913422 9
-7.1593804 -8.5069914 -1.7575219 10
-5.2435513 -4.3585238 -1.8163736 6
-5.1671968 -6.1530199 -1.8440568 6
-6.7706509 -4.8310547 1.7590466 255
-30.047131 -30.862822 10.714818 60
-6.7659535 -4.8347912 1.163835 255
-19.042622 -19.531206 4.7987876 23
-27.720312 -19.80702 2.3739765 31
-19.014112 -19.474758 2.8570242 22
-7.1815419 -5.1370893 0 1
-19.024858 -19.47217 0.94944078 25
-10.591228 -7.5653267 -0.90544236 6
-10.351213 -10.589563 -0.51848233 5
-7.151588 -5.1006465 -1.2265415 4
-10.341322 -10.579432 -1.5460525 28
-6.6353707 -4.7206683 -1.7250043 26
-6.9179316 -7.0787039 -1.7390877 9
-5.1647506 -3.6620636 -1.8043265 6
-5.1976428 -5.321394 -1.8445728 6
-38.76276 -32.046703 11.584869 1
-16.32942 -19.398335 6.7754555 12
-38.676643 -31.98686 7.9258437 2
-14.043693 -16.623116 4.2192879 22
-23.699591 -19.601156 2.6876652 31
-14.617557 -17.259901 2.7688906 24
-23.674242 -19.573238 0.53557068 26
-13.927346 -16.415552 1.1264006 32
-10.620041 -8.7784147 -0.72267419 3
-16.343657 -19.257954 -0.44028413 20
-10.56078 -8.7232466 -1.6751488 21
-10.523783 -12.402189 -1.4171544 23
-6.7372622 -5.5638046 -1.6884851 9
-7.1857238 -8.4750423 -1.7563474 10
-5.263217 -4.3423486 -1.8176668 6
-5.1912861 -6.1359 -1.8446182 7
-6.7706509 -4.8310547 1.7590466 255
-30.047131 -30.862822 10.714818 60
-6.7659535 -4.8347912 1.163835 255
-19.042622 -19.531206 4.7987876 23
-27.720312 -19.80702 2.3739765 31
-19.014112 -19.474758 2.8570242 22
-27.727188 -19.819225 0 1
-19.024858 -19.47217 0.94944078 25
-10.598639 -7.5678229 -0.9059642 6
-18.977499 -19.416912 -0.95164698 1
-10.095434 -7.1981468 -1.7332621 1
-10.341326 -10.579429 -1.5460525 28
-6.6353707 -4.7206683 -1.7250043 26
-6.919167 -7.077497 -1.7390877 9
-5.1647506 -3.6620636 -1.8043265 6
-5.1985712 -5.3204861 -1.8445728 6
-38.76276 -32.046703 11.584869 1
-30.271067 -35.953564 12.566742 1
-38.676643 -31.98686 7.9258437 2
-14.046593 -16.620663 4.2192879 22
-23.699591 -19.601156 2.6876652 31
-14.62057 -17.257349 2.7688906 24
-23.674242 -19.573238 0.53557068 26
-13.930211 -16.413122 1.1264006 32
-20.55217 -16.986233 -1.4001894 7
-16.347019 -19.255098 -0.44028413 20
-10.56078 -8.7232466 -1.6751488 21
-10.525948 -12.400352 -1.4171544 23
-6.7382336 -5.5626283 -1.6884851 9
-7.1872029 -8.4737883 -1.7563474 10
-5.2639751 -4.3414297 -1.8176668 6
-5.1912861 -6.1359 -1.8446182 7
-6.7774906 -4.8003287 1.7564498 255
-30.276955 -30.882479 10.758303 48
-6.7666287 -4.7996936 1.1610515 255
-19.177948 -19.53314 4.815702 21
-27.954067 -19.826984 2.3880668 30
-19.174355 -19.502241 2.8708744 21
-27.865532 -19.771498 0 25
-19.129507 -19.443047 0.95127296 23
-10.60871 -7.5192494 -0.90457261 6
-10.400381 -10.565831 -0.51909608 5
-9.9385767 -7.0341983 -1.7020258 7
-10.390401 -10.555672 -1.5478758 22
-6.6378212 -4.6876111 -1.7213628 26
-6.9421029 -7.0515461 -1.7386537 9
-5.1716037 -3.6398675 -1.8022606 6
-5.2171116 -5.3023076 -1.8445728 6
nan nan nan 0
-30.346405 -35.788727 12.546062 3
-39.005623 -32.0303 7.9703293 3
-14.336701 -16.844435 4.2888708 24
-23.875652 -19.606815 2.699867 31
-14.675889 -17.200542 2.7679777 30
-23.837093 -19.568188 0.53770864 30
-13.982554 -16.358702 1.126008 35
-10.737469 -8.8125534 -0.72858161 8
-16.480719 -19.275829 -0.44207302 18
-10.558545 -8.6595821 -1.6699767 21
-10.497984 -12.280218 -1.4075863 24
-6.7538128 -5.5359626 -1.6875328 9
-7.2183414 -8.4505262 -1.7567388 10
-5.2772284 -4.3214989 -1.8170202 6
-5.2126727 -6.1177416 -1.8446182 6
-6.7774906 -4.8003287 1.7564498 255
-30.276955 -30.882479 10.758303 48
-6.7666287 -4.7996936 1.1610515 255
-19.177948 -19.53314 4.815702 21
-27.954067 -19.826984 2.3880668 30
-19.174355 -19.502241 2.8708744 21
-27.865532 -19.771498 0 25
-19.129507 -19.443047 0.95127296 23
-10.607397 -7.521101 -0.90457261 6
-19.115259 -19.421782 -0.95515442 1
-9.9385767 -7.0341983 -1.7020258 7
-10.390397 -10.555676 -1.5478758 22
-6.6378212 -4.6876111 -1.7213628 26
-6.9408717 -7.0527577 -1.7386537 9
-5.1716037 -3.6398675 -1.8022606 6
-5.2161865 -5.3032184 -1.8445728 6
-39.043858 -32.050304 11.635406 1
-30.340158 -35.794022 12.546062 3
-39.005623 -32.0303 7.9703293 3
-14.33376 -16.846935 4.2888708 24
-23.875652 -19.606815 2.699867 31
-14.672886 -17.203106 2.7679777 30
-23.837093 -19.568188 0.53770864 30
-13.9797 -16.361141 1.126008 35
-19.455269 -15.965796 -1.3215551 2
-16.477352 -19.278706 -0.44207302 18
-10.558545 -8.6595821 -1.6699767 21
-10.495841 -12.28205 -1.4075863 24
-6.7528462 -5.5371418 -1.6875328 9
-7.216866 -8.451786 -1.7567388 10
-5.276474 -4.3224196 -1.8170202 6
-5.2126727 -6.1177416 -1.8446182 6
-6.7793655 -4.7679868 1.7528144 255
-30.476324 -30.880335 10.792728 39
-6.7723851 -4.7701058 1.1593119 255
-19.320492 -19.548241 4.835218 21
-28.17668 -19.844734 2.4014614 34
-19.303627 -19.503937 2.880543 22
-28.129198 -19.818632 0 28
-19.295843 -19.482471 0.95633346 23
-10.601686 -7.4643574 -0.90196323 7
-10.435363 -10.531284 -0.51909608 4
-9.9456406 -6.9898195 -1.6992494 9
-10.423593 -10.519395 -1.5476152 21
-6.6433148 -4.6585588 -1.7187618 26
-6.9590249 -7.0244546 -1.7373514 13
-5.1875863 -3.6254482 -1.8036379 6
-5.2371559 -5.28934 -1.8457816 7
nan nan nan 0
-30.344263 -35.559101 12.49889 2
-39.262794 -32.024075 8.0011568 4
-14.480528 -16.905569 4.3160367 20
-24.040901 -19.609386 2.7111974 31
-14.710461 -17.131762 2.764327 28
-24.000658 -19.56959 0.5399338 29
-14.022483 -16.301441 1.1250921 18
-10.62923 -8.664916 -0.71926099 3
-16.586832 -19.277018 -0.4432947 17
-10.542949 -8.5884809 -1.6629792 19
-10.474811 -12.175417 -1.3993231 22
-6.790204 -5.5302129 -1.6922946 9
-7.2400274 -8.4221888 -1.7555643 9
-5.2945256 -4.3079462 -1.8183135 6
-5.2361016 -6.1041222 -1.8457413 6
-6.7793655 -4.7679868 1.7528144 255
-30.476324 -30.880335 10.792728 39
-6.7723851 -4.7701058 1.1593119 255
-19.320492 -19.548241 4.835218 21
-28.17668 -19.844734 2.4014614 34
-19.300224 -19.507303 2.880543 22
-28.129198 -19.818632 0 28
-19.295843 -19.482471 0.95633346 23
-10.601686 -7.4643574 -0.90196323 7
-19.25341 -19.432835 -0.95883715 1
-9.9444199 -6.9915552 -1.6992494 9
-10.423593 -10.519395 -1.5476152 21
