# .PCD v0.7 - Point Cloud Data file format
VERSION 0.7
FIELDS x y z intensity
SIZE 4 4 4 4
TYPE F F F F
COUNT 1 1 1 1
WIDTH 1520
HEIGHT 1
VIEWPOINT 0 0 0 1 0 0 0
POINTS 1520
DATA ascii
2.4059198 17.235281 -1.8192683 4
2.5997703 7.9207039 -1.7661006 5
1.3852258 9.929637 -1.761662 5
1.8881023 5.7226539 -1.7168651 5
0.94361037 6.7764568 -1.695895 5
9.3977451 37.643143 8.9350214 35
nan nan nan 0
9.3799276 37.599655 6.1183248 32
3.5411992 53.528603 10.4112 4
9.3624611 37.529633 3.3809891 36
2.9024565 43.06155 5.2873912 25
nan nan nan 0
3.5252419 51.643513 2.7110023 16
8.6611938 34.667561 -1.877115 34
3.5770795 52.269447 -0.91390258 86
3.6291876 14.508695 -1.8293988 5
1.4125232 20.652809 -1.8044417 5
2.200412 8.7929258 -1.7518153 6
0.74116194 10.888571 -1.7250259 5
1.554852 6.2014976 -1.7025673 4
0.48964652 7.3022795 -1.6789676 5
11.846409 36.214863 8.0847588 31
6.0687952 44.11623 11.077797 24
11.805763 36.175961 5.3432026 34
6.0696621 43.895588 7.7994938 40
11.791997 36.176529 2.6516099 30
6.1738968 44.421085 4.7100525 74
11.895649 36.515984 0 1
5.6809025 40.768452 1.4362015 27
9.4672022 29.012594 -2.1262674 20
6.1097279 43.791061 -1.5505366 2
4.0899782 12.504544 -1.8394651 5
2.4059198 17.235281 -1.8192683 4
2.5997703 7.9207039 -1.7661006 5
1.3852258 9.929637 -1.761662 5
1.8881023 5.7226539 -1.7168651 5
0.94361037 6.7764568 -1.695895 5
9.3977451 37.643143 8.9350214 35
nan nan nan 0
9.3799276 37.599655 6.1183248 32
3.5411992 53.528603 10.4112 4
9.3624611 37.529633 3.3809891 36
2.9024565 43.06155 5.2873912 25
nan nan nan 0
3.5252419 51.643513 2.7110023 16
8.6611938 34.667561 -1.877115 34
3.5770795 52.269447 -0.91390258 86
3.6291876 14.508695 -1.8293988 5
1.4125232 20.652809 -1.8044417 5
2.200412 8.7929258 -1.7518153 6
0.74116194 10.888571 -1.7250259 5
1.554852 6.2014976 -1.7025673 4
0.48964652 7.3022795 -1.6789676 5
11.976424 36.205563 8.0915108 26
6.1673331 43.757149 10.992639 13
11.949722 36.209488 5.3539886 34
6.1951694 43.733822 7.7743397 41
11.924395 36.175125 2.6543932 30
6.2675686 44.023758 4.6700702 74
11.800706 35.821007 0 13
5.8195925 40.77412 1.4370739 18
9.5774336 29.023668 -2.1293986 16
5.8376269 40.849529 -1.4469804 2
4.1345344 12.500313 -1.8408533 5
2.4662256 17.249359 -1.8216124 5
2.6252503 7.9097176 -1.7655803 5
1.4205803 9.94205 -1.7647009 5
1.911642 5.7300363 -1.7209971 4
0.96641839 6.775692 -1.6964993 5
9.5147467 37.581066 8.927722 35
nan nan nan 0
9.496686 37.53722 6.1132522 38
3.7047544 53.315807 10.372118 50
9.4764776 37.457333 3.377285 38
3.056077 43.205158 5.3062544 16
12.002833 47.406605 0.85298634 1
3.6674542 51.225632 2.6896756 16
8.8098364 34.771751 -1.8843352 36
3.6899855 51.414597 -0.89915526 2
3.6772802 14.49658 -1.8293988 5
1.4843777 20.695213 -1.8085735 5
2.2313707 8.792716 -1.7532438 6
0.77761525 10.890979 -1.725809 5
1.5783865 6.2080088 -1.7058004 4
0.51419812 7.3054762 -1.6800907 5
11.976424 36.205563 8.0915108 26
6.1673331 43.757149 10.992639 13
11.949722 36.209488 5.3539886 34
6.1951694 43.733822 7.7743397 41
11.924395 36.175125 2.6543932 30
6.2598844 44.024853 4.6700702 74
11.800706 35.821007 0 13
5.8195925 40.77412 1.4370739 18
9.5774336 29.023668 -2.1293986 16
6.2174578 43.508381 -1.5412419 16
4.1323528 12.501035 -1.8408533 5
2.4662256 17.249359 -1.8216124 5
2.6238697 7.9101763 -1.7655803 5
1.4205803 9.94205 -1.7647009 5
1.9106419 5.7303696 -1.7209971 4
0.96641839 6.775692 -1.6964993 5
9.5081882 37.582726 8.927722 35
nan nan nan 0
9.4901342 37.538879 6.1132522 38
3.7047544 53.315807 10.372118 50
9.4736023 37.473476 3.3785925 38
3.6705792 51.905666 6.375659 1
11.994559 47.408703 0.85298634 1
3.6674542 51.225632 2.6896756 16
8.8037682 34.773289 -1.8843352 36
3.6810181 51.415237 -0.89915526 2
3.6747501 14.497222 -1.8293988 5
1.4807657 20.695469 -1.8085735 5
2.2313707 8.792716 -1.7532438 6
0.7757144 10.891114 -1.725809 5
1.5773031 6.2082839 -1.7058004 4
0.51292306 7.3055658 -1.6800907 5
10.820186 32.332626 7.2335401 6
6.273212 43.411217 10.911104 16
12.101142 36.242699 5.3651223 31
6.2989779 43.375687 7.7144904 38
11.982718 35.929825 2.6394329 6
6.354372 43.596779 4.6269526 27
11.863993 35.594608 0 13
5.9434476 40.62748 1.4326242 4
9.6936979 29.035006 -2.1327038 18
6.3016057 43.024132 -1.5248448 9
4.1751785 12.484187 -1.8405063 5
2.5332663 17.28739 -1.826561 4
2.6553609 7.9125576 -1.7681813 5
1.4552757 9.9370308 -1.7647009 5
1.9283235 5.716835 -1.718931 4
0.99006408 6.7722769 -1.6964993 5
9.6278086 37.504482 8.9170532 32
nan nan nan 0
9.6106787 37.464859 6.1066179 31
3.8257022 52.409161 10.198161 1
9.5925922 37.394341 3.3744524 35
3.8212867 51.48175 6.3251548 13
12.083512 47.068745 0.84761965 3
3.8088918 50.714603 2.6635075 18
8.9250956 34.742348 -1.8843352 38
3.4715438 46.217438 -0.808402 85
3.7290428 14.498727 -1.8312242 5
1.5548558 20.71501 -1.810748 5
2.2651114 8.7967567 -1.7556245 6
0.81537366 10.910501 -1.7293326 5
1.597154 6.1957254 -1.7038605 4
0.53771079 7.2940116 -1.6778445 5
12.155524 36.32122 8.1268263 4
6.273212 43.411217 10.911104 16
12.101142 36.242699 5.3651223 31
6.2989779 43.375687 7.7144904 38
11.982718 35.929825 2.6394329 6
6.3619809 43.595669 4.6269526 27
11.863993 35.594608 0 13
5.9434476 40.62748 1.4326242 4
9.6936979 29.035006 -2.1327038 18
6.3016057 43.024132 -1.5248448 9
4.1773577 12.483459 -1.8405063 5
2.5332663 17.28739 -1.826561 4
2.6567419 7.9120941 -1.7681813 5
1.4552757 9.9370308 -1.7647009 5
1.9293214 5.7164984 -1.718931 4
0.99006408 6.7722769 -1.6964993 5
9.6343536 37.502804 8.9170532 32
nan nan nan 0
9.617218 37.463184 6.1066179 31
3.8257022 52.409161 10.198161 1
9.5991182 37.392662 3.3744524 35
3.8212867 51.48175 6.3251548 13
12.091727 47.066639 0.84761965 3
3.8088918 50.714603 2.6635075 18
8.931159 34.740791 -1.8843352 38
3.8373849 50.97517 -0.89169425 1
3.7315731 14.498075 -1.8312242 5
1.5584713 20.714739 -1.810748 5
2.2651114 8.7967567 -1.7556245 6
0.81727791 10.910359 -1.7293326 5
1.5982355 6.1954465 -1.7038605 4
0.53898382 7.2939181 -1.6778445 5
10.859347 32.058826 7.1810861 30
6.3835564 43.059166 10.828362 16
12.25372 36.256733 5.3738208 34
6.4060578 43.00407 7.652473 34
11.996234 35.535961 2.6136875 4
6.5202527 43.562222 4.6259069 4
11.92402 35.342438 0 20
6.0493255 40.318802 1.4225034 4
9.8128319 29.037081 -2.1354871 18
6.4165869 42.716606 -1.5147611 47
4.2278533 12.482131 -1.8425888 5
2.60658 17.344378 -1.8335934 4
2.6865118 7.9046192 -1.7687016 4
1.493513 9.9438047 -1.7668716 5
1.954931 5.7230306 -1.723063 4
1.0159559 6.7758002 -1.6983124 5
9.7655954 37.443661 8.911438 32
nan nan nan 0
9.7451191 37.391842 6.1007648 30
4.01964 52.419258 10.202928 42
9.7260532 37.318672 3.3709662 36
3.9704821 50.960236 6.2627854 13
9.7833719 37.511738 0.67606258 88
3.9708474 50.396664 2.6475451 38
9.064105 34.729561 -1.8855166 37
3.9899924 50.527176 -0.88410234 4
3.7828038 14.4771 -1.8303115 5
nan nan nan 0
2.2998223 8.7978935 -1.7575293 6
0.85803062 10.917138 -1.7308987 5
1.6233817 6.1988912 -1.7064471 4
0.56646132 7.3016095 -1.6800907 5
10.859347 32.058826 7.1810861 30
6.3835564 43.059166 10.828362 16
12.25372 36.256733 5.3738208 34
6.4060578 43.00407 7.652473 34
11.996234 35.535961 2.6136875 4
6.5202527 43.562222 4.6259069 4
11.92402 35.342438 0 20
6.0493255 40.318802 1.4225034 4
9.8178997 29.035368 -2.1354871 18
6.4165869 42.716606 -1.5147611 47
4.2278533 12.482131 -1.8425888 5
2.606586 17.344376 -1.8335934 4
2.6865118 7.9046192 -1.7687016 4
1.4952484 9.9435444 -1.7668716 5
1.954931 5.7230306 -1.723063 4
1.0171386 6.7756228 -1.6983124 5
9.7655954 37.443661 8.911438 32
nan nan nan 0
9.7451191 37.391842 6.1007648 30
4.028789 52.418552 10.202928 42
9.7260532 37.318672 3.3709662 36
3.9793763 50.959541 6.2627854 13
9.7833719 37.511738 0.67606258 88
3.9796431 50.395969 2.6475451 38
9.064105 34.729561 -1.8855166 37
3.998811 50.526474 -0.88410234 4
3.7828038 14.4771 -1.8303115 5
nan nan nan 0
2.301358 8.7974911 -1.7575293 6
0.859936 10.916987 -1.7308987 5
1.6244637 6.1986074 -1.7064471 4
0.56646132 7.3016095 -1.6800907 5
10.545381 30.77846 6.9021931 34
6.490139 42.748802 10.755887 16
12.408245 36.295727 5.3859987 32
6.5093665 42.674767 7.5978279 30
12.041197 35.262589 2.5966401 18
6.5608268 42.811737 4.5485559 2
12.019045 35.217789 0 13
6.1407299 39.976402 1.4111611 6
9.9264584 29.022154 -2.1370528 18
6.5409794 42.533432 -1.5090615 18
4.2746115 12.476665 -1.843977 4
2.6622019 17.303223 -1.8302073 4
2.7140877 7.8951936 -1.7687016 4
1.5310711 9.9455633 -1.7681739 5
1.9748963 5.7161722 -1.723063 4
1.0407838 6.7720308 -1.6983124 5
9.8850203 37.366947 8.90133 32
nan nan nan 0
9.8661137 37.321785 6.0949116 34
4.1435905 51.555309 10.03755 1
9.8486223 37.255604 3.3683515 37
4.1030045 50.280045 6.1809449 20
9.9206457 37.501522 0.67649889 1
4.1362634 50.147881 2.635246 46
9.1897516 34.714603 -1.8864356 37
4.172689 50.482319 -0.88357884 86
3.8396747 14.487791 -1.8333539 5
nan nan nan 0
2.3339424 8.7965212 -1.7589577 6
0.89844108 10.918841 -1.7316817 5
1.6473329 6.197567 -1.7077404 5
0.59194529 7.2995877 -1.6800907 5
10.545381 30.77846 6.9021931 34
6.490139 42.748802 10.755887 16
12.408245 36.295727 5.3859987 32
6.5093665 42.674767 7.5978279 30
12.041197 35.262589 2.5966401 18
6.5608268 42.811737 4.5485559 2
12.019045 35.217789 0 13
6.1407299 39.976402 1.4111611 6
9.9213934 29.023888 -2.1370528 18
6.5409794 42.533432 -1.5090615 18
4.2746115 12.476665 -1.843977 4
2.6621957 17.303225 -1.8302073 4
2.7140877 7.8951936 -1.7687016 4
1.5293353 9.9458303 -1.7681739 5
1.9748963 5.7161722 -1.723063 4
1.0396018 6.7722125 -1.6983124 5
9.8850203 37.366947 8.90133 32
nan nan nan 0
9.8661137 37.321785 6.0949116 34
4.134593 51.55603 10.03755 1
9.8486223 37.255604 3.3683515 37
4.0942287 50.280762 6.1809449 20
9.9206457 37.501522 0.67649889 1
4.127511 50.148602 2.635246 46
9.1897516 34.714603 -1.8864356 37
4.163878 50.483047 -0.88357884 86
3.8396747 14.487791 -1.8333539 5
nan nan nan 0
2.332407 8.7969275 -1.7589577 6
0.8965354 10.918998 -1.7316817 5
1.6462513 6.197854 -1.7077404 5
0.59194529 7.2995877 -1.6800907 5
10.640182 30.722527 6.8975191 37
6.581275 42.40102 10.673749 16
10.821036 31.315046 4.6515126 3
6.6042018 42.353722 7.5444837 30
nan nan nan 0
6.6869893 42.689037 4.5378418 77
12.057471 34.950874 0 20
6.2217388 39.627544 1.399557 6
10.036326 29.04504 -2.1410537 20
6.4609265 41.104649 -1.4590809 9
4.3224497 12.481134 -1.8467536 5
2.7218766 17.30904 -1.8317702 4
2.7442727 7.8976965 -1.7713026 4
1.5645989 9.9552984 -1.7707787 5
1.995429 5.7141285 -1.7244403 5
1.06393 6.7807107 -1.7013344 5
9.9994173 37.298676 8.8929071 35
nan nan nan 0
9.9789562 37.248314 6.0882773 29
4.3034949 51.517582 10.032784 34
9.9605093 37.17944 3.3644297 37
4.2222109 49.809486 6.124661 4
20.128387 75.074089 1.3560956 148
4.2559061 49.691868 2.6119566 38
9.3015852 34.671883 -1.8857793 38
4.2633672 49.676991 -0.86970407 3
3.8889847 14.479772 -1.8339624 5
nan nan nan 0
2.3628404 8.7938852 -1.7599101 6
0.93399435 10.930727 -1.7340308 5
1.6674232 6.1946931 -1.708387 5
0.61696208 7.3072953 -1.6823368 5
10.640182 30.722527 6.8975191 37
6.581275 42.40102 10.673749 16
12.559273 36.343288 5.39922 16
6.6042018 42.353722 7.5444837 30
nan nan nan 0
6.6869893 42.689037 4.5378418 77
12.057471 34.950874 0 20
6.2217388 39.627544 1.399557 6
10.036326 29.04504 -2.1410537 20
6.4609265 41.104649 -1.4590809 9
4.3224497 12.481134 -1.8467536 5
2.7218766 17.30904 -1.8317702 4
2.7442727 7.8976965 -1.7713026 4
1.5645989 9.9552984 -1.7707787 5
1.995429 5.7141285 -1.7244403 5
1.06393 6.7807107 -1.7013344 5
9.9994173 37.298676 8.8929071 35
nan nan nan 0
9.9789562 37.248314 6.0882773 29
4.3034949 51.517582 10.032784 34
9.9605093 37.17944 3.3644297 37
4.2222109 49.809486 6.124661 4
20.128387 75.074089 1.3560956 148
4.2559061 49.691868 2.6119566 38
9.3015852 34.671883 -1.8857793 38
4.2633672 49.676991 -0.86970407 3
3.8889847 14.479772 -1.8339624 5
nan nan nan 0
2.3628404 8.7938852 -1.7599101 6
0.93399435 10.930727 -1.7340308 5
1.6674232 6.1946931 -1.708387 5
0.61696208 7.3072953 -1.6823368 5
10.706926 30.569805 6.8715515 25
6.6820803 42.080688 10.598858 16
10.910672 31.220999 4.6431623 20
6.7047043 42.033783 7.4915733 28
nan nan nan 0
6.8457913 42.72681 4.5443749 1
12.282376 35.203617 0 4
6.3140888 39.319424 1.3894361 18
10.139297 29.01454 -2.1414015 18
6.286818 39.10593 -1.3888452 6
4.365171 12.463634 -1.8464065 5
2.7874081 17.331345 -1.835156 4
2.7710123 7.8857622 -1.7707825 5
1.6001203 9.9546375 -1.7716469 5
2.0185699 5.7161903 -1.7271951 5
1.0887438 6.784142 -1.7031475 5
10.120605 37.230633 8.885046 36
nan nan nan 0
10.098559 37.175129 6.0820341 31
4.4107976 50.668526 9.870265 1
10.082393 37.115601 3.3618147 35
4.3622637 49.411312 6.0775032 6
20.397535 75.0299 1.3565754 13
4.3892465 49.226612 2.5882745 29
9.442873 34.713882 -1.8898487 38
4.1247745 46.166229 -0.80844557 77
3.9421136 14.475685 -1.8351794 5
nan nan nan 0
2.3941677 8.7879505 -1.7603861 6
0.97257948 10.932318 -1.7348138 5
1.6884003 6.1865053 -1.7077404 4
0.64225364 7.30267 -1.6817752 5
10.706926 30.569805 6.8715515 25
6.6820803 42.080688 10.598858 16
10.910672 31.220999 4.6431623 20
6.7047043 42.033783 7.4915733 28
nan nan nan 0
6.8457913 42.72681 4.5443749 1
15.829721 45.367355 0 1
6.3140888 39.319424 1.3894361 18
10.139297 29.01454 -2.1414015 18
6.7399521 41.925491 -1.4890692 20
4.365171 12.463634 -1.8464065 5
2.7874081 17.331345 -1.835156 4
2.7710123 7.8857622 -1.7707825 5
1.6001203 9.9546375 -1.7716469 5
2.0185699 5.7161903 -1.7271951 5
1.0887438 6.784142 -1.7031475 5
10.120605 37.230633 8.885046 36
nan nan nan 0
10.098559 37.175129 6.0820341 31
4.4107976 50.668526 9.870265 1
10.082393 37.115601 3.3618147 35
4.3622637 49.411312 6.0775032 6
20.397535 75.0299 1.3565754 13
4.3892465 49.226612 2.5882745 29
9.442873 34.713882 -1.8898487 38
4.4129701 49.395401 -0.86503547 1
3.9421136 14.475685 -1.8351794 5
nan nan nan 0
2.3941677 8.7879505 -1.7603861 6
0.97257948 10.932318 -1.7348138 5
1.6884003 6.1865053 -1.7077404 4
0.64225364 7.30267 -1.6817752 5
10.684892 30.152351 6.7863779 20
6.7856841 41.744629 10.520344 18
11.034935 31.208803 4.647337 32
6.8079543 41.697895 7.4360609 30
nan nan nan 0
6.8627753 41.850048 4.4536963 16
12.443788 35.250301 0 4
6.4253497 39.096321 1.382369 37
10.273849 29.057121 -2.147316 20
6.8473473 41.619461 -1.4790732 1
4.4174447 12.466218 -1.8491831 4
2.8484912 17.306293 -1.8335934 4
2.803998 7.8870721 -1.7733835 5
1.636595 9.9487066 -1.7716469 5
2.0411277 5.7132792 -1.7285725 5
1.1136016 6.7801061 -1.7031475 5
10.247278 37.158062 8.8766232 34
nan nan nan 0
10.223591 37.097393 6.0754008 31
4.5933752 50.617798 9.8635921 16
10.21042 37.049587 3.3592002 37
4.5045099 48.972454 6.0254784 9
nan nan nan 0
4.2675428 45.953667 2.4168744 4
9.5560932 34.628498 -1.8870921 38
4.692297 50.436672 -0.88357884 1
3.9971263 14.468315 -1.8360921 5
nan nan nan 0
2.4289782 8.788579 -1.7622908 5
1.0137759 10.940974 -1.7367715 5
1.7123536 6.1849303 -1.7090337 4
0.66989815 7.3099718 -1.6840214 5
11.439907 32.282085 7.2662597 1
6.7856841 41.744629 10.520344 18
11.034935 31.208803 4.647337 32
6.8079543 41.697895 7.4360609 30
12.776205 36.171558 2.6733544 18
6.8627753 41.850048 4.4536963 16
16.087463 45.568336 0 1
6.4253497 39.096321 1.382369 37
10.27892 29.055328 -2.147316 20
6.8473473 41.619461 -1.4790732 1
4.4174447 12.466218 -1.8491831 4
2.8484972 17.306292 -1.8335934 4
2.803998 7.8870721 -1.7733835 5
1.6383314 9.9484205 -1.7716469 5
2.0411277 5.7132792 -1.7285725 5
1.1147848 6.7799115 -1.7031475 5
10.247278 37.158062 8.8766232 34
nan nan nan 0
10.223591 37.097393 6.0754008 31
4.6022096 50.616997 9.8635921 16
10.21042 37.049587 3.3592002 37
4.5130572 48.971664 6.0254784 9
nan nan nan 0
4.5664463 49.082615 2.5816019 3
9.5560932 34.628498 -1.8870921 38
4.7010999 50.435856 -0.88357884 1
3.9971263 14.468315 -1.8360921 5
nan nan nan 0
2.430512 8.7881556 -1.7622908 5
1.0156854 10.940797 -1.7367715 5
1.713433 6.1846313 -1.7090337 4
0.66989815 7.3099718 -1.6840214 5
10.762848 30.038902 6.7692389 25
6.8860469 41.447868 10.451492 18
11.123798 31.114153 4.6389871 38
6.903234 41.372738 7.3822837 28
nan nan nan 0
7.0092282 41.828293 4.453958 64
12.60711 35.31966 0 4
6.5419269 38.955376 1.378181 9
10.392885 29.054491 -2.1499255 18
6.1917439 36.830109 -1.3094901 4
4.4634404 12.457714 -1.8502243 5
2.9125988 17.318312 -1.8359374 4
2.8339968 7.8841372 -1.7749441 5
1.6763123 9.9620647 -1.7751199 5
2.0626943 5.710639 -1.7299497 5
1.1396481 6.7831559 -1.7049607 5
10.370361 37.098606 8.8710079 34
nan nan nan 0
10.343055 37.025806 6.0695467 30
4.70118 49.777237 9.70298 2
10.327622 36.970547 3.355278 36
4.646667 48.565327 5.9774084 13
nan nan nan 0
4.4052587 45.619629 2.4001269 4
9.6708584 34.573296 -1.8859106 39
4.8978038 50.633106 -0.88733113 1
4.0509529 14.466221 -1.8376133 5
nan nan nan 0
2.4631624 8.7867069 -1.7637194 6
1.0555203 10.954391 -1.7395121 5
1.735011 6.1786127 -1.7090337 4
0.69586909 7.3124394 -1.6851444 5
10.762848 30.038902 6.7692389 25
6.8860469 41.447868 10.451492 18
11.123798 31.114153 4.6389871 38
6.903234 41.372738 7.3822837 28
nan nan nan 0
7.0092282 41.828293 4.453958 64
12.60711 35.31966 0 4
6.5419269 38.955376 1.378181 9
10.387813 29.056307 -2.1499255 18
6.9271593 41.206009 -1.4652189 3
4.4634404 12.457714 -1.8502243 5
2.9125929 17.318312 -1.8359374 4
2.8339968 7.8841372 -1.7749441 5
1.6745737 9.9623566 -1.7751199 5
2.0626943 5.710639 -1.7299497 5
1.1384641 6.7833548 -1.7049607 5
10.370361 37.098606 8.8710079 34
nan nan nan 0
10.343055 37.025806 6.0695467 30
4.6924925 49.778053 9.70298 2
10.327622 36.970547 3.355278 36
4.6381907 48.566135 5.9774084 13
nan nan nan 0
4.3972964 45.620399 2.4001269 4
9.6708584 34.573296 -1.8859106 39
4.8889661 50.633957 -0.88733113 1
4.0509529 14.466221 -1.8376133 5
nan nan nan 0
2.4616287 8.7871361 -1.7637194 6
1.0536084 10.954575 -1.7395121 5
1.7339326 6.1789155 -1.7090337 4
0.69586909 7.3124394 -1.6851444 5
10.824925 29.89958 6.7458682 26
6.9768333 41.149738 10.382037 18
11.214294 31.042168 4.6337676 36
6.9928818 41.070492 7.3324089 28
nan nan nan 0
7.2710586 42.525341 4.530786 2
12.785256 35.446976 0 32
6.6470275 38.793106 1.3732079 18
10.504454 29.07799 -2.1541004 18
7.0164728 40.907009 -1.4553982 83
4.5081015 12.452155 -1.8516126 4
2.9725275 17.323261 -1.8375 4
2.861798 7.8792925 -1.7759844 5
1.708432 9.9616032 -1.7759881 5
2.0799692 5.6992531 -1.7285725 6
1.1613611 6.7819333 -1.7055651 5
10.481381 37.02182 8.8609009 32
nan nan nan 0
10.458384 36.965164 6.0652542 34
4.8356214 49.537498 9.6591339 9
10.442025 36.907337 3.3526635 36
4.757515 48.128216 5.9253831 13
10.501053 37.091228 0.67226666 4
4.516377 45.282612 2.3831177 4
9.7983847 34.58667 -1.8884047 40
4.5089355 45.12809 -0.79103673 9
4.1016116 14.462257 -1.8388302 5
nan nan nan 0
2.4894135 8.7742033 -1.7627672 6
1.0899292 10.95102 -1.7395121 5
1.7557344 6.1777768 -1.7103268 4
0.72082609 7.3173652 -1.686829 5
11.749316 32.45179 7.3223491 1
6.9768333 41.149738 10.382037 18
11.214294 31.042168 4.6337676 36
6.9928818 41.070492 7.3324089 28
nan nan nan 0
7.2636361 42.526608 4.530786 2
12.785256 35.446976 0 32
7.0317326 41.039005 1.4527787 1
10.504454 29.07799 -2.1541004 18
7.0164728 40.907009 -1.4553982 83
4.5059276 12.452942 -1.8516126 4
2.9725275 17.323261 -1.8375 4
2.8604226 7.8797922 -1.7759844 5
1.708432 9.9616032 -1.7759881 5
2.0789745 5.699616 -1.7285725 6
1.1613611 6.7819333 -1.7055651 5
10.474918 37.023647 8.8609009 32
nan nan nan 0
10.451932 36.966991 6.0652542 34
4.8356214 49.537498 9.6591339 9
10.435583 36.909157 3.3526635 36
4.757515 48.128216 5.9253831 13
10.494579 37.09306 0.67226666 4
4.516377 45.282612 2.3831177 4
9.792347 34.588383 -1.8884047 40
4.5010648 45.128876 -0.79103673 9
4.0990868 14.462973 -1.8388302 5
nan nan nan 0
2.4894135 8.7742033 -1.7627672 6
1.0880179 10.95121 -1.7395121 5
1.7546562 6.1780829 -1.7103268 4
0.71954894 7.3174906 -1.686829 5
10.909049 29.806496 6.7334037 36
7.0711927 40.840679 10.310165 20
11.301343 30.944698 4.6250696 30
7.0902462 40.781425 7.2851367 28
nan nan nan 0
nan nan nan 0
12.918335 35.427967 0 9
6.7785258 38.747509 1.3724227 42
10.623864 29.09034 -2.1577535 20
7.1006274 40.547569 -1.443473 1
4.550221 12.439462 -1.8519597 4
3.0316927 17.305433 -1.8367187 4
2.8870671 7.8674641 -1.7754643 5
1.7436182 9.958004 -1.7764221 5
2.1038551 5.7058506 -1.7327045 5
1.1854442 6.7802281 -1.7061695 5
10.596034 36.958755 8.8541613 34
4.8478689 48.781044 13.107615 2
10.571383 36.897045 6.0597911 36
4.9611382 49.051514 9.5676279 79
10.554068 36.836597 3.3493953 38
4.8830671 47.696606 5.8742709 13
10.626061 37.063412 0.67239755 88
4.6354733 44.889091 2.36323 6
9.9261074 34.599583 -1.8908989 36
4.6606183 45.132778 -0.79138571 13
4.1536589 14.462886 -1.8406558 5
nan nan nan 0
2.5220618 8.7725363 -1.7641956 6
1.1285032 10.969453 -1.7430358 5
1.7768795 6.1742406 -1.7109735 4
0.74508733 7.3149343 -1.686829 5
10.909049 29.806496 6.7334037 36
7.0711927 40.840679 10.310165 20
11.301343 30.944698 4.6250696 30
7.0902462 40.781425 7.2851367 28
nan nan nan 0
7.1544247 40.981144 4.3687668 1
12.918335 35.427967 0 9
7.1508389 40.876381 1.4478928 1
10.623864 29.09034 -2.1577535 20
7.1006274 40.547569 -1.443473 1
4.5523915 12.438667 -1.8519597 4
3.0316927 17.305433 -1.8367187 4
2.8884404 7.8669605 -1.7754643 5
1.7436182 9.958004 -1.7764221 5
2.1048508 5.7054834 -1.7327045 5
1.1854442 6.7802281 -1.7061695 5
10.602485 36.956902 8.8541613 34
4.8478689 48.781044 13.107615 2
10.577822 36.895203 6.0597911 36
4.9611382 49.051514 9.5676279 79
10.560496 36.834755 3.3493953 38
4.8830671 47.696606 5.8742709 13
10.632531 37.06155 0.67239755 88
4.6354733 44.889091 2.36323 6
9.9321461 34.597851 -1.8908989 36
5.1805749 50.087318 -0.87834305 4
4.1561832 14.46216 -1.8406558 5
nan nan nan 0
2.5220618 8.7725363 -1.7641956 6
1.1304177 10.969255 -1.7430358 5
1.7779571 6.1739306 -1.7109735 4
0.74636412 7.3148041 -1.686829 5
11.008032 29.738794 6.7271714 24
7.2090039 40.747601 10.293255 35
11.391518 30.840372 4.6156754 31
7.1923146 40.488506 7.2374306 30
nan nan nan 0
7.3128729 41.001152 4.3737321 36
13.061077 35.415558 0 6
6.8897367 38.55024 1.3663151 13
10.751161 29.107349 -2.1619284 18
7.0538936 39.429279 -1.4045408 30
4.6048322 12.440471 -1.8547362 4
3.086345 17.245255 -1.8315097 4
2.9198117 7.8631959 -1.7770249 5
1.7801046 9.9515467 -1.7764221 6
2.1232235 5.6909766 -1.7306385 5
1.210713 6.7782259 -1.7067739 5
10.7263 36.878033 8.8446159 34
4.9875374 48.383381 13.005514 13
10.706087 36.832478 6.0558896 37
5.1204333 48.837734 9.5295 26
10.687087 36.767101 3.3467803 37
5.0170522 47.293438 5.8268094 16
10.757823 36.986332 0.67174304 1
4.7676024 44.568947 2.3472676 13
10.021906 34.43417 -1.8839414 36
4.5353637 42.325912 -0.7424314 18
4.2154107 14.46827 -1.8433939 5
2.2582877 21.088554 -1.8488026 5
2.5569465 8.7726574 -1.7661003 6
1.1719199 10.977315 -1.7449933 5
1.8026059 6.1743269 -1.7129134 4
0.77418774 7.3217106 -1.6890751 5
11.008032 29.738794 6.7271714 24
7.2090039 40.747601 10.293255 35
11.391518 30.840372 4.6156754 31
7.1923146 40.488506 7.2374306 30
nan nan nan 0
7.305717 41.00243 4.3737321 36
13.061077 35.415558 0 6
6.8897367 38.55024 1.3663151 13
10.751161 29.107349 -2.1619284 18
7.0538936 39.429279 -1.4045408 30
4.6026607 12.441275 -1.8547362 4
3.086345 17.245255 -1.8315097 4
2.9184391 7.8637052 -1.7770249 5
1.7801046 9.9515467 -1.7764221 6
2.1222303 5.6913471 -1.7306385 5
1.210713 6.7782259 -1.7067739 5
10.719863 36.879906 8.8446159 34
4.9875374 48.383381 13.005514 13
10.699658 36.834347 6.0558896 37
5.1204333 48.837734 9.5295 26
10.68067 36.768963 3.3467803 37
5.0170522 47.293438 5.8268094 16
10.751366 36.988205 0.67174304 1
4.7676024 44.568947 2.3472676 13
10.015896 34.435921 -1.8839414 36
5.3676052 50.183254 -0.88035005 2
4.2128854 14.469007 -1.8433939 5
2.254607 21.088947 -1.8488026 5
2.5569465 8.7726574 -1.7661003 6
1.1700039 10.977518 -1.7449933 5
1.8015283 6.1746416 -1.7129134 4
0.77290982 7.321846 -1.6890751 5
11.128866 29.761679 6.7406745 6
7.3544192 40.780769 10.307751 31
11.506712 30.837217 4.6208944 30
7.273478 40.171288 7.1849542 28
nan nan nan 0
7.3359423 40.395752 4.3115377 36
13.216863 35.475128 0 6
nan nan nan 0
10.87379 29.141632 -2.1671472 16
7.3037806 40.05949 -1.427865 84
4.6438923 12.425943 -1.8547362 4
3.1568909 17.308306 -1.8393232 4
2.9453599 7.8562732 -1.777545 5
1.8153002 9.9576988 -1.7785927 5
2.1444867 5.6932716 -1.7333932 5
1.2357861 6.7884936 -1.7104001 5
10.831785 36.809101 8.8361931 36
5.1111808 48.02076 12.912461 29
10.810596 36.760757 6.0496459 28
5.2077107 48.129986 9.3946238 4
10.793406 36.702286 3.3439481 38
5.1290827 46.867073 5.7763057 16
nan nan nan 0
4.4894915 40.689121 2.1435499 23
10.09618 34.287563 -1.8776402 36
4.6729732 42.353691 -0.74317312 13
4.2629495 14.462097 -1.8443066 5
2.3212585 21.051647 -1.8461932 5
2.5881083 8.7711916 -1.7675288 6
1.2088196 10.995669 -1.748517 4
1.8213097 6.1663175 -1.7122668 4
0.79718572 7.3192425 -1.6890751 5
12.189607 32.597252 7.3836331 6
7.3544192 40.780769 10.307751 31
11.506712 30.837217 4.6208944 30
7.273478 40.171288 7.1849542 28
nan nan nan 0
7.3337226 40.383526 4.3102312 36
13.216863 35.475128 0 6
nan nan nan 0
10.87379 29.141632 -2.1671472 16
7.3037806 40.05949 -1.427865 84
4.6438923 12.425943 -1.8547362 4
3.1568909 17.308306 -1.8393232 4
2.9453599 7.8562732 -1.777545 5
1.8153002 9.9576988 -1.7785927 5
2.1444867 5.6932716 -1.7333932 5
1.2357861 6.7884936 -1.7104001 5
10.831785 36.809101 8.8361931 36
5.1111808 48.02076 12.912461 29
10.810596 36.760757 6.0496459 28
5.2077107 48.129986 9.3946238 4
10.793406 36.702286 3.3439481 38
5.1290827 46.867073 5.7763057 16
nan nan nan 0
4.8828225 44.257584 2.3316975 1
10.09618 34.287563 -1.8776402 36
5.5148187 49.991261 -0.87729591 37
4.2629495 14.462097 -1.8443066 5
2.3212585 21.051647 -1.8461932 5
2.5881083 8.7711916 -1.7675288 6
1.2088196 10.995669 -1.748517 4
1.8213097 6.1663175 -1.7122668 4
0.79718572 7.3192425 -1.6890751 5
11.220577 29.690624 6.7334037 6
7.4949698 40.745304 10.305334 18
11.623898 30.822344 4.6247215 30
7.3635955 39.874485 7.1363811 26
nan nan nan 0
7.4230385 40.078979 4.2804408 18
13.373219 35.515339 0 4
7.4211178 39.951778 1.417792 1
10.995695 29.157164 -2.1711481 16
7.4170866 39.891277 -1.4227793 1
4.6916161 12.421236 -1.8564715 5
3.2159262 17.289848 -1.8385419 4
2.9727654 7.8459444 -1.777545 4
1.8495986 9.9488811 -1.7781587 5
2.1669166 5.6924877 -1.7354592 5
1.2594749 6.7841387 -1.7104001 5
10.953942 36.75005 8.8311386 31
5.2365732 47.618534 12.809069 28
10.931096 36.696766 6.0453529 35
5.2204819 46.721287 9.1229649 13
10.910789 36.628586 3.3406794 36
5.2570229 46.53326 5.7373629 18
nan nan nan 0
4.633471 40.690571 2.1444657 45
10.222226 34.273647 -1.8788216 37
5.6980457 50.048695 -0.87864846 63
4.3190866 14.466148 -1.8467405 5
2.4031606 21.117655 -1.8527168 5
2.6215229 8.7715092 -1.7694335 5
1.2474717 10.993836 -1.7489084 5
1.8449012 6.166863 -1.7142067 5
0.82327116 7.3212571 -1.6901982 5
nan nan nan 0
7.4949698 40.745304 10.305334 18
11.623898 30.822344 4.6247215 30
7.3635955 39.874485 7.1363811 26
nan nan nan 0
7.4300342 40.077682 4.2804408 18
13.373219 35.515339 0 4
7.4211178 39.951778 1.417792 1
10.995695 29.157164 -2.1711481 16
7.4170866 39.891277 -1.4227793 1
4.6937842 12.420417 -1.8564715 5
3.2159262 17.289848 -1.8385419 4
2.9741349 7.8454256 -1.777545 4
1.8495986 9.9488811 -1.7781587 5
2.1679099 5.6921096 -1.7354592 5
1.2594749 6.7841387 -1.7104001 5
10.960357 36.748142 8.8311386 31
5.2365732 47.618534 12.809069 28
10.9375 36.694855 6.0453529 35
5.2204819 46.721287 9.1229649 13
10.917182 36.626678 3.3406794 36
5.2570229 46.53326 5.7373629 18
nan nan nan 0
4.633471 40.690571 2.1444657 45
10.228208 34.271858 -1.8788216 37
5.7067752 50.047703 -0.87864846 63
4.3216109 14.465395 -1.8467405 5
2.4068463 21.117235 -1.8527168 5
2.6215229 8.7715092 -1.7694335 5
1.2493905 10.993618 -1.7489084 5
1.8459774 6.1665406 -1.7142067 5
0.82454896 7.3211131 -1.6901982 5
11.351154 29.706406 6.7463875 18
7.6308341 40.64603 10.287216 1
11.742964 30.795721 4.6271572 30
7.4645619 39.607689 7.0934458 26
13.858619 36.379955 2.7130163 18
7.4664459 39.466305 4.2179852 36
13.541562 35.566547 0 6
7.2083883 38.029209 1.350436 6
11.132709 29.19589 -2.1770625 16
7.4729199 39.387615 -1.4057684 38
4.7392759 12.403131 -1.8564715 5
3.2825184 17.295046 -1.8403651 5
3.0063746 7.8436031 -1.7796259 5
1.8897181 9.9613876 -1.7816317 5
2.1870277 5.6796417 -1.7340819 5
1.2838807 6.7770939 -1.7097957 5
11.084397 36.672745 8.8227167 31
5.3690953 47.229481 12.709553 26
11.061921 36.621426 6.0398903 36
5.3714404 46.526299 9.0886507 30
11.043428 36.560192 3.3382828 37
5.4229426 46.474247 5.7324948 38
nan nan nan 0
4.7889862 40.727863 2.1473441 70
10.356644 34.243698 -1.8793468 34
5.8989329 50.100925 -0.87995738 63
4.3760386 14.454208 -1.8473489 4
2.4912021 21.167637 -1.8579357 5
2.6550779 8.7665396 -1.7703857 6
1.2908227 10.998775 -1.7504746 4
1.8685666 6.1597333 -1.7142067 5
0.85165662 7.3204618 -1.6907597 5
11.351154 29.706406 6.7463875 18
7.6308341 40.64603 10.287216 1
11.742964 30.795721 4.6271572 30
7.4645619 39.607689 7.0934458 26
13.858619 36.379955 2.7130163 18
7.4664459 39.466305 4.2179852 36
13.541562 35.566547 0 6
7.2083883 38.029209 1.350436 6
11.137803 29.193949 -2.1770625 16
7.4729199 39.387615 -1.4057684 38
4.7392759 12.403131 -1.8564715 5
3.2825241 17.295044 -1.8403651 5
3.0063746 7.8436031 -1.7796259 5
1.8914566 9.9610586 -1.7816317 5
2.1870277 5.6796417 -1.7340819 5
1.2850636 6.7768693 -1.7097957 5
11.084397 36.672745 8.8227167 31
5.3773379 47.228539 12.709553 26
11.061921 36.621426 6.0398903 36
5.3795609 46.525364 9.0886507 30
11.043428 36.560192 3.3382828 37
5.4310536 46.473297 5.7324948 38
nan nan nan 0
4.7960949 40.727024 2.1473441 70
10.356644 34.243698 -1.8793468 34
5.9076767 50.099895 -0.87995738 63
4.3760386 14.454208 -1.8473489 4
2.4948967 21.1672 -1.8579357 5
2.6566081 8.7660761 -1.7703857 6
1.2927425 10.998549 -1.7504746 4
1.8696415 6.1594071 -1.7142067 5
0.85165662 7.3204618 -1.6907597 5
11.404683 29.552252 6.7199006 32
7.6571918 40.053391 10.143474 20
11.858373 30.791265 4.6323762 35
7.5425181 39.304649 7.0435715 30
14.032928 36.473454 2.7234538 20
7.5258169 39.070229 4.1782641 58
13.793165 35.869114 0 51
7.3368249 38.017361 1.3508723 39
11.245317 29.184778 -2.1791501 16
7.5873866 39.279213 -1.4027871 72
4.7901931 12.41275 -1.8602893 5
3.3497589 17.335329 -1.8458345 5
3.0323687 7.833591 -1.7796259 5
1.9254118 9.9595642 -1.7824998 5
2.2102129 5.6835537 -1.7375252 5
1.3079884 6.7749524 -1.7104001 5
11.194545 36.598511 8.8137312 31
5.4886942 46.824265 12.605514 23
11.176805 36.56329 6.0363784 26
5.4839816 46.0881 9.0066757 18
11.154412 36.490025 3.3352323 38
5.5883908 46.482136 5.7358418 31
nan nan nan 0
4.9425211 40.805084 2.1523161 45
10.543219 34.447891 -1.8924744 34
6.0825033 50.151993 -0.88122272 31
4.4261284 14.446734 -1.8482618 5
2.5800362 21.282436 -1.8688084 5
2.6878228 8.7642565 -1.7718142 6
1.3315707 11.013813 -1.7536067 5
1.8928955 6.1624064 -1.7167931 5
0.87765557 7.3321114 -1.6941289 5
11.404683 29.552252 6.7199006 32
7.6571918 40.053391 10.143474 20
11.858373 30.791265 4.6323762 35
7.5425181 39.304649 7.0435715 30
14.032928 36.473454 2.7234538 20
7.5189981 39.071541 4.1782641 58
13.793165 35.869114 0 51
7.3368249 38.017361 1.3508723 39
11.240223 29.186741 -2.1791501 16
7.5873866 39.279213 -1.4027871 72
4.7880259 12.413586 -1.8602893 5
3.3497529 17.335331 -1.8458345 5
3.0310013 7.8341198 -1.7796259 5
1.9236734 9.9598999 -1.7824998 5
2.2092209 5.6839399 -1.7375252 5
1.3068061 6.7751808 -1.7104001 5
11.188158 36.600468 8.8137312 31
5.4805222 46.825222 12.605514 23
11.170423 36.565239 6.0363784 26
5.4759369 46.089062 9.0066757 18
11.148044 36.491974 3.3352323 38
5.5802784 46.483109 5.7358418 31
nan nan nan 0
4.9353995 40.805943 2.1523161 45
10.537207 34.44973 -1.8924744 34
6.065002 50.154114 -0.88122272 31
4.4236069 14.447507 -1.8482618 5
2.572607 21.283335 -1.8688084 5
2.6862929 8.7647247 -1.7718142 6
1.327726 11.014277 -1.7536067 5
1.8907442 6.1630664 -1.7167931 5
0.87637591 7.3322644 -1.6941289 5
11.521811 29.533033 6.7250938 28
7.6595955 39.284527 9.9556427 42
12.001698 30.826027 4.644206 34
7.6354704 39.015781 6.9967327 28
13.86448 35.645493 2.6653526 18
7.6109338 38.782661 4.1503024 58
13.904605 35.767056 0 36
7.4259562 37.735256 1.3417983 18
11.373371 29.21274 -2.1841948 16
7.4069128 37.603809 -1.3438627 18
4.8334923 12.395953 -1.8602893 5
3.4137478 17.325377 -1.846095 4
3.0650456 7.8366194 -1.7827471 5
1.9620664 9.9624462 -1.7842363 5
2.2300389 5.6758041 -1.7375252 5
1.3320971 6.7727265 -1.7110045 5
11.313581 36.531288 8.8069935 31
5.6078458 46.437981 12.506644 27
11.294144 36.491028 6.0309153 30
5.6024761 45.722778 8.9390001 18
11.273617 36.424698 3.3328354 36
5.7225904 46.235779 5.7078519 16
11.344232 36.630184 0.66873252 90
5.113317 41.015507 2.1643534 66
10.738786 34.65411 -1.9058645 35
5.3151193 42.63562 -0.74936873 66
4.4780006 14.435937 -1.8488703 5
2.6441417 21.221861 -1.8642418 5
2.7191272 8.757164 -1.7722903 6
1.3680865 11.009337 -1.7536067 4
1.9161897 6.165319 -1.7193797 5
0.90324414 7.3290033 -1.6941289 5
11.521811 29.533033 6.7250938 28
7.6595955 39.284527 9.9556427 42
12.001698 30.826027 4.644206 34
7.6354704 39.015781 6.9967327 28
13.86448 35.645493 2.6653526 18
7.617703 38.78133 4.1503024 58
13.904605 35.767056 0 36
7.4259562 37.735256 1.3417983 18
11.378469 29.210754 -2.1841948 16
7.4069128 37.603809 -1.3438627 18
4.8356552 12.39511 -1.8602893 5
3.4137537 17.325375 -1.846095 4
3.0664134 7.8360848 -1.7827471 5
1.9638051 9.9621029 -1.7842363 5
2.2310295 5.675415 -1.7375252 5
1.3332791 6.7724934 -1.7110045 5
11.319956 36.529312 8.8069935 31
5.6159511 46.437004 12.506644 27
11.300511 36.489059 6.0309153 30
5.610456 45.721798 8.9390001 18
11.279974 36.422729 3.3328354 36
5.73066 46.234779 5.7078519 16
11.350625 36.628204 0.66873252 90
5.1204762 41.01461 2.1643534 66
10.744834 34.652233 -1.9058645 35
5.6896992 45.513447 -0.80002475 1
4.4805202 14.435155 -1.8488703 5
2.6515493 21.220936 -1.8642418 5
2.7206557 8.7566891 -1.7722903 6
1.3719293 11.008858 -1.7536067 4
1.9183415 6.16465 -1.7193797 5
0.90452325 7.3288455 -1.6941289 5
11.644566 29.542686 6.7365198 31
7.7470708 39.007694 9.8922272 44
12.172683 30.945208 4.668561 20
7.7210903 38.735355 6.9511952 30
12.225129 31.110296 2.3290956 6
7.7071929 38.525326 4.1257381 54
14.025713 35.708992 0 31
7.5517421 37.67971 1.3407514 34
11.509601 29.245117 -2.1897614 16
7.7547812 38.658031 -1.3825319 2
4.8834362 12.38967 -1.8620245 5
3.4820328 17.35236 -1.8502624 5
3.0991485 7.8389735 -1.7858683 5
2.0019562 9.972085 -1.7872752 5
2.2534926 5.6742921 -1.7395912 6
1.359292 6.7796917 -1.7140263 5
11.432812 36.443089 8.795763 34
5.7341933 46.064819 12.411653 24
11.421164 36.428177 6.0274024 31
5.7230253 45.329403 8.8660812 20
11.398849 36.356995 3.3304386 39
5.9130244 46.379421 5.7282357 1
11.484398 36.607437 0.66908157 16
5.2153282 40.62009 2.1444657 68
10.896388 34.712177 -1.9112468 35
5.2424717 40.775299 -0.71699429 9
4.5360899 14.435997 -1.851 5
2.7322628 21.263428 -1.8688084 5
2.7563634 8.7635269 -1.7756237 6
1.4116006 11.0138 -1.7551727 5
1.9413009 6.1625223 -1.7206728 5
0.93162692 7.3377285 -1.6969365 5
11.644566 29.542686 6.7365198 31
7.7470708 39.007694 9.8922272 44
12.172683 30.945208 4.668561 20
7.7210903 38.735355 6.9511952 30
14.340099 36.490475 2.7323253 6
7.7004685 38.526672 4.1257381 54
14.025713 35.708992 0 31
7.5517421 37.67971 1.3407514 34
11.504496 29.247128 -2.1897614 16
7.7547812 38.658031 -1.3825319 2
4.8812733 12.390522 -1.8620245 5
3.4820268 17.352362 -1.8502624 5
3.09778 7.8395138 -1.7858683 5
2.0002158 9.972435 -1.7872752 5
2.2525024 5.674685 -1.7395912 6
1.3581089 6.7799282 -1.7140263 5
11.426453 36.445084 8.795763 34
5.7261534 46.065819 12.411653 24
11.414804 36.430172 6.0274024 31
5.7151136 45.330399 8.8660812 20
11.392502 36.358982 3.3304386 39
5.9049296 46.380451 5.7282357 1
11.478009 36.609444 0.66908157 16
5.2082381 40.621002 2.1444657 68
10.890329 34.714081 -1.9112468 35
5.2282443 40.777126 -0.71699429 9
4.5335703 14.436789 -1.851 5
2.7248402 21.26438 -1.8688084 5
2.7548337 8.7640076 -1.7756237 6
1.407756 11.014292 -1.7551727 5
1.9391495 6.1631989 -1.7206728 5
0.93034619 7.3378911 -1.6969365 5
11.711714 29.426662 6.7188621 30
7.8326716 38.765404 9.8372669 46
12.358425 31.114037 4.700223 18
7.8108535 38.518906 6.9169331 40
12.308905 31.020908 2.3254426 43
7.8143191 38.432705 4.1184211 66
14.156958 35.69482 0 6
7.8497944 38.503967 1.3710266 26
11.627206 29.273708 -2.1946323 16
7.8949194 38.690861 -1.3846363 3
4.9278302 12.388069 -1.864107 5
3.5420346 17.352901 -1.8515645 5
3.1273892 7.8382816 -1.7879492 5
2.0332747 9.9657469 -1.7872752 5
2.2704122 5.6649542 -1.7389026 5
1.3801007 6.7730107 -1.7134219 5
11.546507 36.404663 8.7952013 32
5.8342628 45.696819 12.317307 26
11.524357 36.356812 6.0215497 36
5.8232188 44.985062 8.8022175 20
11.506237 36.299637 3.3284779 37
5.9195714 45.295204 5.5964994 2
11.585743 36.528294 0.66829622 16
5.3490973 40.650539 2.1469517 62
11.058255 34.844341 -1.920436 35
5.3790774 40.878517 -0.71908855 1
4.5806684 14.419312 -1.8506956 5
2.8005278 21.294737 -1.8722878 6
2.7846253 8.7571621 -1.7760997 6
1.4452333 11.016909 -1.7563474 5
1.9588438 6.1544342 -1.7200263 5
0.95498729 7.3371816 -1.6974981 5
11.711714 29.426662 6.7188621 30
7.8326716 38.765404 9.8372669 46
12.358425 31.114037 4.700223 18
7.8108535 38.518906 6.9169331 40
12.308905 31.020908 2.3254426 43
7.8143191 38.432705 4.1184211 66
14.156958 35.69482 0 6
7.8497944 38.503967 1.3710266 26
11.627206 29.273708 -2.1946323 16
7.8949194 38.690861 -1.3846363 3
4.9278302 12.388069 -1.864107 5
3.5420346 17.352901 -1.8515645 5
3.1273892 7.8382816 -1.7879492 5
2.0332747 9.9657469 -1.7872752 5
2.2704122 5.6649542 -1.7389026 5
1.3801007 6.7730107 -1.7134219 5
11.546507 36.404663 8.7952013 32
5.8342628 45.696819 12.317307 26
11.524357 36.356812 6.0215497 36
5.8232188 44.985062 8.8022175 20
11.506237 36.299637 3.3284779 37
5.9195714 45.295204 5.5964994 2
11.585743 36.528294 0.66829622 16
5.3490973 40.650539 2.1469517 62
11.058255 34.844341 -1.920436 35
5.3790774 40.878517 -0.71908855 1
4.5806684 14.419312 -1.8506956 5
2.8005278 21.294737 -1.8722878 6
2.7846253 8.7571621 -1.7760997 6
1.4452333 11.016909 -1.7563474 5
1.9588438 6.1544342 -1.7200263 5
0.95498729 7.3371816 -1.6974981 5
11.81436 29.385603 6.7188621 9
7.9273839 38.540604 9.7871389 53
12.444825 31.015566 4.6918726 28
7.9348135 38.440773 6.9078259 41
12.370703 30.862013 2.3167448 46
7.942884 38.378414 4.1155467 67
14.316812 35.733364 0 4
7.9943008 38.525261 1.3727716 16
11.759047 29.307007 -2.2001989 16
8.0030069 38.533409 -1.3799889 39
4.9756618 12.382277 -1.8658423 4
3.6091576 17.372078 -1.8549505 4
3.1547308 7.8273172 -1.7879492 5
2.0715499 9.9754629 -1.790314 5
2.2928829 5.6636753 -1.7409686 6
1.4037347 6.7681522 -1.7134219 5
11.664577 36.336308 8.7884626 32
5.9469576 45.319386 12.221022 25
11.636106 36.269337 6.0137453 34
5.9343009 44.619003 8.7345409 18
11.619942 36.218941 3.3247738 37
6.0786347 45.281639 5.5974121 59
11.702484 36.454311 0.66768539 4
5.4836121 40.57719 2.1440732 40
11.212653 34.907738 -1.9260811 36
5.625761 41.629887 -0.73265791 4
4.636291 14.419767 -1.8528253 5
2.8808346 21.32926 -1.876202 6
2.8174334 8.7543974 -1.7775282 6
1.4853243 11.024033 -1.758305 5
1.9803149 6.1475587 -1.7200263 5
0.98187846 7.343462 -1.6997441 5
13.350135 33.204041 7.5929322 1
7.9273839 38.540604 9.7871389 53
12.444825 31.015566 4.6918726 28
7.9348135 38.440773 6.9078259 41
12.370703 30.862013 2.3167448 46
7.9495826 38.377022 4.1155467 67
14.316812 35.733364 0 4
7.9943008 38.525261 1.3727716 16
11.759047 29.307007 -2.2001989 16
8.0030069 38.533409 -1.3799889 39
4.9778223 12.381408 -1.8658423 4
3.6091576 17.372078 -1.8549505 4
3.1560972 7.826767 -1.7879492 5
2.0715499 9.9754629 -1.790314 5
2.2938712 5.6632748 -1.7409686 6
1.4037347 6.7681522 -1.7134219 5
11.670918 36.334274 8.7884626 32
5.9469576 45.319386 12.221022 25
11.642435 36.267303 6.0137453 34
5.9343009 44.619003 8.7345409 18
11.626264 36.216911 3.3247738 37
6.0786347 45.281639 5.5974121 59
11.708846 36.452271 0.66768539 4
5.4836121 40.57719 2.1440732 40
11.218745 34.905777 -1.9260811 36
6.0188417 44.482498 -0.78292125 34
4.6388078 14.41896 -1.8528253 5
2.884557 21.328756 -1.876202 6
2.8174334 8.7543974 -1.7775282 6
1.4872483 11.023772 -1.758305 5
1.981388 6.147213 -1.7200263 5
0.98316002 7.3432908 -1.6997441 5
11.964343 29.446312 6.7427526 3
8.060133 38.470921 9.7768707 51
12.520265 30.875689 4.6776075 30
8.0665369 38.368061 6.9000192 40
12.497787 30.851137 2.3193543 42
8.0824919 38.311138 4.1116271 59
14.480535 35.761753 0 13
8.1008444 38.331917 1.366926 54
11.90482 29.358465 -2.2073312 18
8.1038656 38.313156 -1.3731495 83
5.0296979 12.379134 -1.8682718 5
3.6774347 17.380627 -1.8572946 4
3.1903062 7.8287315 -1.7910705 5
2.1091156 9.972621 -1.7911823 5
2.3137007 5.652606 -1.7402799 5
1.4290323 6.7653351 -1.7140263 5
11.792708 36.256504 8.7800407 35
6.0691276 44.971786 12.133138 23
11.771466 36.21265 6.0117941 30
6.0512877 44.256542 8.6678181 22
11.751996 36.15274 3.3228128 32
6.1293297 44.423279 5.4939709 1
11.78283 36.226078 0.66432577 4
5.6367583 40.588963 2.1457741 38
11.345833 34.862045 -1.9259497 36
5.8694944 42.212082 -0.74330401 4
4.6970072 14.418375 -1.854955 4
2.9712691 21.379713 -1.8816383 6
2.8525441 8.7533445 -1.7794329 6
1.5283186 11.023141 -1.759088 5
2.0084045 6.1536832 -1.723906 5
1.0090762 7.3323975 -1.6980596 5
13.462536 33.132225 7.587738 6
8.060133 38.470921 9.7768707 51
12.520265 30.875689 4.6776075 30
8.0665369 38.368061 6.9000192 40
12.497787 30.851137 2.3193543 42
8.0824919 38.311138 4.1116271 59
14.480535 35.761753 0 13
8.1008444 38.331917 1.366926 54
11.909945 29.356386 -2.2073312 18
8.1038656 38.313156 -1.3731495 83
5.0296979 12.379134 -1.8682718 5
3.6774406 17.380627 -1.8572946 4
3.1903062 7.8287315 -1.7910705 5
2.1108561 9.9722528 -1.7911823 5
2.3137007 5.652606 -1.7402799 5
1.4302131 6.7650852 -1.7140263 5
11.792708 36.256504 8.7800407 35
6.0769758 44.97073 12.133138 23
11.771466 36.21265 6.0117941 30
6.0590119 44.255482 8.6678181 22
11.751996 36.15274 3.3228128 32
6.1370831 44.422211 5.4939709 1
11.78283 36.226078 0.66432577 4
5.6438427 40.587978 2.1457741 38
11.345833 34.862045 -1.9259497 36
nan nan nan 0
4.6970072 14.418375 -1.854955 4
2.9750009 21.379196 -1.8816383 6
2.8540716 8.7528477 -1.7794329 6
1.5302426 11.022873 -1.759088 5
2.0094786 6.1533327 -1.723906 5
1.0090762 7.3323975 -1.6980596 5
13.56789 33.06015 7.5820251 16
8.1847677 38.397472 9.7653961 48
nan nan nan 0
8.1937246 38.308372 6.8943815 39
12.418343 30.350323 2.2849107 30
8.2046976 38.22921 4.1058779 53
14.645982 35.810482 0 23
6.4600787 30.047098 1.0720252 18
12.050182 29.406939 -2.2142894 18
8.3205738 38.670567 -1.3870038 3
5.071938 12.359212 -1.8679248 5
3.7438397 17.394424 -1.8601595 4
3.21575 7.8130245 -1.79003 5
2.1482418 9.9768581 -1.7933528 5
2.3380167 5.6555972 -1.7437233 5
1.4563657 6.7719111 -1.7170483 5
11.916147 36.205856 8.7777939 31
6.1848516 44.5952 12.0375 26
11.892399 36.154919 6.0090618 20
6.1677446 43.908398 8.6039543 20
11.895243 36.163544 3.3276064 31
6.2955866 44.425083 5.4970131 58
11.889672 36.12537 0.66323501 1
5.8259897 40.852264 2.1608207 30
11.44793 34.762955 -1.9226677 36
6.1127892 42.811401 -0.75425541 16
4.7496395 14.408962 -1.8558677 5
3.056988 21.420456 -1.8862048 5
2.8846076 8.7428312 -1.7794329 6
1.5721807 11.04191 -1.7630031 5
2.0317035 6.1485734 -1.7245526 5
1.0356818 7.3360672 -1.6997441 5
13.56789 33.06015 7.5820251 16
8.1847677 38.397472 9.7653961 48
nan nan nan 0
8.1937246 38.308372 6.8943815 39
12.418343 30.350323 2.2849107 30
8.2046976 38.22921 4.1058779 53
14.645982 35.810482 0 23
8.2135983 38.205696 1.363436 1
12.04505 29.40904 -2.2142894 18
8.3205738 38.670567 -1.3870038 3
5.071938 12.359212 -1.8679248 5
3.743834 17.394424 -1.8601595 4
3.21575 7.8130245 -1.79003 5
2.1465003 9.9772329 -1.7933528 5
2.3380167 5.6555972 -1.7437233 5
1.4551837 6.7721653 -1.7170483 5
11.916147 36.205856 8.7777939 31
6.1770682 44.596272 12.0375 26
11.892399 36.154919 6.0090618 20
6.1600804 43.909473 8.6039543 20
11.895243 36.163544 3.3276064 31
6.2878332 44.426186 5.4970131 58
11.889672 36.12537 0.66323501 1
5.8188596 40.853279 2.1608207 30
11.44793 34.762955 -1.9226677 36
6.1053166 42.812466 -0.75425541 16
4.7496395 14.408962 -1.8558677 5
3.0532494 21.42099 -1.8862048 5
2.8830817 8.7433348 -1.7794329 6
1.5702535 11.042183 -1.7630031 5
2.0306306 6.1489282 -1.7245526 5
1.0356818 7.3360672 -1.6997441 5
12.552098 30.299479 6.9577641 4
8.2981882 38.306103 9.7490892 39
nan nan nan 0
8.3092127 38.228062 6.8848405 39
12.519873 30.311281 2.285085 16
8.322422 38.160496 4.1014357 48
14.802825 35.854145 0 6
6.5447559 29.957165 1.0695822 26
nan nan nan 0
6.4603119 29.545778 -1.0602012 2
5.121429 12.362907 -1.8710485 4
3.805743 17.401346 -1.8622432 4
3.2444594 7.8090911 -1.7915906 5
2.1816757 9.979682 -1.7950894 5
2.3586125 5.6522474 -1.7451007 5
1.477633 6.7673025 -1.7170483 4
12.041532 36.182327 8.7817249 31
6.2791524 44.252743 11.950262 23
12.038731 36.19495 6.0223303 20
6.2620606 43.585152 8.5443802 20
12.030823 36.171158 3.331964 30
6.3760853 43.997421 5.4465089 58
11.916252 35.805889 0.6580866 13
5.9661803 40.915287 2.1651385 9
11.589967 34.805336 -1.9271313 37
6.3540611 43.524124 -0.76717037 84
4.802104 14.407255 -1.8576932 4
3.125344 21.41814 -1.8868573 5
2.9151666 8.7430391 -1.7813376 5
1.6072167 11.03936 -1.7633946 5
2.0533061 6.1490312 -1.7264925 5
1.0610447 7.3398266 -1.7014288 5
13.796349 33.301884 7.6479831 6
8.2981882 38.306103 9.7490892 39
nan nan nan 0
8.3092127 38.228062 6.8848405 39
15.262724 36.94949 2.786078 1
8.3157606 38.161949 4.1014357 48
14.802825 35.854145 0 6
6.5447559 29.957165 1.0695822 26
nan nan nan 0
8.4919796 38.840466 -1.3941063 1
5.1192713 12.363801 -1.8710485 4
3.805743 17.401346 -1.8622432 4
3.2430964 7.8096571 -1.7915906 5
2.1816757 9.979682 -1.7950894 5
2.357626 5.6526589 -1.7451007 5
1.477633 6.7673025 -1.7170483 4
12.035216 36.184429 8.7817249 31
6.2791524 44.252743 11.950262 23
12.032412 36.197048 6.0223303 20
6.2620606 43.585152 8.5443802 20
12.024508 36.17326 3.331964 30
6.3760853 43.997421 5.4465089 58
11.910004 35.807964 0.6580866 13
5.9661803 40.915287 2.1651385 9
11.583892 34.807358 -1.9271313 37
6.3464708 43.525234 -0.76717037 84
4.7995892 14.408093 -1.8576932 4
3.1216063 21.418686 -1.8868573 5
2.9151666 8.7430391 -1.7813376 5
1.6052901 11.039639 -1.7633946 5
2.0522327 6.1493897 -1.7264925 5
1.0597636 7.3400116 -1.7014288 5
12.731427 30.431437 6.9982738 28
8.420372 38.224781 9.7358017 36
nan nan nan 0
8.4335718 38.157955 6.8774676 39
12.529561 30.037235 2.2676892 39
8.4370909 38.079285 4.0956864 41
nan nan nan 0
6.6146226 29.778036 1.0639983 31
nan nan nan 0
nan nan nan 0
5.164309 12.350424 -1.8717426 5
3.8583705 17.351549 -1.8583363 4
3.2741249 7.8073077 -1.7936715 5
2.2148972 9.964797 -1.793787 5
2.3801463 5.6510372 -1.7471666 5
1.5033464 6.7715764 -1.7194657 5
12.178546 36.192993 8.7940788 28
6.3724475 43.809933 11.836531 28
12.18388 36.229729 6.0348167 26
6.3673649 43.244957 8.481946 25
12.140383 36.10038 3.3291314 28
6.4691687 43.567451 5.3960056 4
11.975924 35.590862 0.65485787 16
6.0669465 40.612724 2.1502228 3
11.701339 34.754879 -1.9264748 36
nan nan nan 0
4.849854 14.391253 -1.8576932 5
3.1985562 21.42244 -1.888162 5
2.9464526 8.7351351 -1.7818136 5
1.6445414 11.038854 -1.7641776 5
2.0729127 6.1399007 -1.7258458 5
1.0875088 7.350728 -1.7047979 5
13.435733 32.114311 7.3857102 1
8.420372 38.224781 9.7358017 36
nan nan nan 0
8.4335718 38.157955 6.8774676 39
12.529561 30.037235 2.2676892 39
8.443737 38.077808 4.0956864 41
nan nan nan 0
6.6146226 29.778036 1.0639983 31
nan nan nan 0
6.5032396 29.252325 -1.0504681 1
5.1664648 12.349523 -1.8717426 5
3.8583765 17.351547 -1.8583363 4
3.2754874 7.806736 -1.7936715 5
2.2166362 9.9644098 -1.793787 5
2.3811324 5.6506219 -1.7471666 5
1.5045283 6.7713137 -1.7194657 5
12.184862 36.190872 8.7940788 28
6.3800936 43.808819 11.836531 28
12.190204 36.227596 6.0348167 26
6.3749127 43.243843 8.481946 25
12.146684 36.098263 3.3291314 28
6.4767718 43.566319 5.3960056 4
11.982136 35.588772 0.65485787 16
6.0740352 40.611664 2.1502228 3
11.707404 34.752838 -1.9264748 36
nan nan nan 0
4.8523655 14.390405 -1.8576932 5
