# .PCD v0.7 - Point Cloud Data file format
VERSION 0.7
FIELDS x y z intensity
SIZE 4 4 4 4
TYPE F F F F
COUNT 1 1 1 1
WIDTH 1412
HEIGHT 1
VIEWPOINT 0 0 0 1 0 0 0
POINTS 1412
DATA ascii
54.792267 -14.533851 3.9515824 1
69.111298 -5.6961775 7.2848496 6
18.523275 -4.9070792 0 4
10.353162 -2.7466023 -0.74470675 7
13.592229 -1.1290834 -0.47744566 5
7.1897378 -1.9127613 -1.0380831 5
8.662652 -0.7203396 -0.90689939 5
5.5096483 -1.4719551 -1.2058383 5
6.3870912 -0.53054476 -1.1239387 5
4.4826374 -1.2050992 -1.3201886 20
5.0851073 -0.421047 -1.2625533 5
37.630482 -7.1903353 8.8227167 32
42.178341 -8.0519133 6.7801452 29
46.329819 -0.47360489 8.9909487 65
59.988346 -11.452581 5.3400326 25
76.531837 -0.87282342 9.3797274 4
22.565817 -4.3111653 0.4004018 5
36.000076 -0.44438168 1.8850101 82
11.652604 -2.2275181 -0.6219855 6
15.656047 -0.19855301 -0.27269605 4
7.8259025 -1.4982843 -0.97265726 5
9.4979124 -0.12059265 -0.82632911 5
5.8988366 -1.1299949 -1.1585122 5
6.8119841 -0.084233142 -1.0747154 5
4.7632723 -0.91471523 -1.289373 18
5.3743081 -0.060902208 -1.2308686 4
50.58411 -13.663231 11.120374 32
55.133728 -14.851262 8.0198498 2
45.899769 -3.9128532 8.1082811 28
54.931461 -14.776217 3.9653251 3
68.768959 -5.9097223 7.2508783 13
10.353145 -2.7853203 -0.74540257 6
13.603142 -1.1778133 -0.47797176 5
7.1901865 -1.939785 -1.0391243 5
8.672471 -0.75164407 -0.90820163 5
5.5091958 -1.4924606 -1.2068787 5
6.3876529 -0.55304819 -1.1243728 5
4.480721 -1.2213733 -1.3208773 21
5.0932741 -0.43962529 -1.2649709 5
37.619495 -7.3244395 8.8260851 31
42.101501 -8.1896629 6.7723413 30
46.188011 -0.63341898 8.9637833 62
76.421631 -1.1383812 9.3666449 13
22.57762 -4.395164 0.40088174 5
35.978336 -0.56972903 1.8839635 36
11.65946 -2.2710452 -0.62277317 6
15.672753 -0.25347948 -0.27300146 4
7.8279309 -1.5270196 -0.97356999 5
9.4974346 -0.15374582 -0.82632911 5
5.897265 -1.1510497 -1.1589885 5
6.8190556 -0.10812336 -1.0758899 5
4.7624197 -0.93180114 -1.2900196 22
5.366755 -0.079559639 -1.229184 4
50.58411 -13.663231 11.120374 32
55.133728 -14.851262 8.0198498 2
45.899769 -3.9128532 8.1082811 28
54.931461 -14.776217 3.9653251 3
68.768959 -5.9097223 7.2508783 13
10.353145 -2.7853203 -0.74540257 6
13.603142 -1.1778133 -0.47797176 5
7.1901865 -1.939785 -1.0391243 5
8.672471 -0.75164407 -0.90820163 5
5.5091958 -1.4924606 -1.2068787 5
6.3876529 -0.55304819 -1.1243728 5
4.480721 -1.2213733 -1.3208773 21
5.0932741 -0.43962529 -1.2649709 5
37.619495 -7.3244395 8.8260851 31
42.101501 -8.1896629 6.7723413 30
46.188011 -0.63341898 8.9637833 62
59.974895 -11.667142 5.3424292 1
76.421631 -1.1383812 9.3666449 13
22.57762 -4.395164 0.40088174 5
35.978336 -0.56972903 1.8839635 36
11.65946 -2.2710452 -0.62277317 6
15.672753 -0.25347948 -0.27300146 4
7.8279309 -1.5270196 -0.97356999 5
9.4974346 -0.15374582 -0.82632911 5
5.897265 -1.1510497 -1.1589885 5
6.8190556 -0.10812336 -1.0758899 5
4.7624197 -0.93180114 -1.2900196 22
5.366755 -0.079559639 -1.229184 4
50.54324 -13.832191 11.121412 32
54.890724 -14.981197 7.9916668 2
48.802563 -4.3232369 8.6239395 16
55.019302 -14.995686 3.9752402 4
68.446854 -6.1107712 7.218997 16
10.346257 -2.8202941 -0.74557656 7
13.601649 -1.2231399 -0.47805947 5
7.1765518 -1.9616556 -1.0380831 5
8.6674547 -0.78017664 -0.90794128 5
5.5089312 -1.5120194 -1.2079191 4
6.3882356 -0.5744471 -1.1248069 5
4.4743309 -1.2355832 -1.3201886 21
5.0966206 -0.45694405 -1.2661796 5
37.692982 -7.4685683 8.8491077 30
42.258209 -8.3656816 6.8019977 30
46.197926 -0.78678817 8.9661655 58
44.351624 -8.7801971 3.952513 44
22.641384 -4.4855604 0.40227795 5
11.654314 -2.310183 -0.62290448 6
15.709313 -0.30617058 -0.27365592 4
7.8228245 -1.5529696 -0.97356999 5
9.4943819 -0.18519221 -0.82611161 5
5.9054503 -1.1729933 -1.1613692 5
6.8161902 -0.13068989 -1.0754985 5
4.7593036 -0.9475888 -1.2900196 21
5.3713331 -0.097440183 -1.2303071 4
50.54324 -13.832191 11.121412 32
54.890724 -14.981197 7.9916668 2
48.802563 -4.3232369 8.6239395 16
55.019302 -14.995686 3.9752402 4
68.447922 -6.098825 7.218997 16
10.346257 -2.8202941 -0.74557656 7
13.601649 -1.2231399 -0.47805947 5
7.1768937 -1.9604031 -1.0380831 5
8.6674547 -0.78017664 -0.90794128 5
5.5091949 -1.511058 -1.2079191 4
6.3882356 -0.5744471 -1.1248069 5
4.4745455 -1.2348024 -1.3201886 21
5.0966206 -0.45694405 -1.2661796 5
37.694283 -7.4619889 8.8491077 30
42.259666 -8.3583069 6.8019977 30
46.197926 -0.78678817 8.9661655 58
59.940392 -11.855985 5.3426471 1
22.642168 -4.4816084 0.40227795 5
11.654717 -2.3081486 -0.62290448 6
15.709366 -0.30343485 -0.27365592 4
7.8230953 -1.5516042 -0.97356999 5
9.4944143 -0.18353513 -0.82611161 5
5.9054503 -1.1729933 -1.1613692 5
6.8162131 -0.12950023 -1.0754985 5
4.759469 -0.94675809 -1.2900196 21
5.3713503 -0.096502706 -1.2303071 4
50.511143 -14.013112 11.125048 32
54.654373 -15.121862 7.9648757 2
45.004162 -4.1452875 7.9547553 16
55.050758 -15.2109 3.981329 3
68.230629 -6.3196058 7.1983523 20
10.34356 -2.8583875 -0.7460984 7
13.604759 -1.2713072 -0.47832254 5
7.1843209 -1.9894153 -1.0401655 5
8.6745806 -0.81135064 -0.90898299 5
5.5038867 -1.5302794 -1.2079191 4
6.3886433 -0.59697098 -1.125241 5
4.4678941 -1.2497642 -1.3195 21
5.0925784 -0.47450769 -1.2655752 5
38.245911 -7.7100477 8.9849977 28
42.46262 -8.5525846 6.8394589 26
46.104111 -0.94619006 8.9485321 41
44.324703 -8.9277153 3.9527307 35
22.619032 -4.5591345 0.40214705 5
11.663719 -2.3522747 -0.6238234 6
15.700714 -0.35810006 -0.27352503 4
7.8224964 -1.579886 -0.97417849 5
9.4837551 -0.21645315 -0.82524186 5
5.894104 -1.1921383 -1.1599407 5
6.8181882 -0.15334634 -1.0758899 5
4.763236 -0.96480668 -1.2919595 21
5.3563676 -0.11495062 -1.2269379 4
50.511143 -14.013112 11.125048 32
54.654373 -15.121862 7.9648757 2
45.004162 -4.1452875 7.9547553 16
55.050758 -15.2109 3.981329 3
68.229523 -6.3315144 7.1983523 20
10.34306 -2.8601928 -0.7460984 7
13.604759 -1.2713072 -0.47832254 5
7.1839733 -1.9906693 -1.0401655 5
8.6745806 -0.81135064 -0.90898299 5
5.5036197 -1.53124 -1.2079191 4
6.3885388 -0.598086 -1.125241 5
4.4676762 -1.2505441 -1.3195 21
5.0924959 -0.47539648 -1.2655752 5
38.244568 -7.716723 8.9849977 28
42.461124 -8.5599966 6.8394589 26
46.103947 -0.95423681 8.9485321 41
44.323147 -8.9354506 3.9527307 35
22.618237 -4.5630827 0.40214705 5
11.663309 -2.3543103 -0.6238234 6
15.700588 -0.36357462 -0.27352503 4
7.8222203 -1.5812513 -0.97417849 5
9.4836788 -0.21976361 -0.82524186 5
5.8938956 -1.1931671 -1.1599407 5
6.8181348 -0.15572634 -1.0758899 5
4.7628989 -0.96646935 -1.2919595 21
5.3563476 -0.11588549 -1.2269379 4
50.480625 -14.204113 11.129722 24
54.720142 -15.356203 7.9826202 6
45.390614 -4.3486986 8.0258808 34
54.86977 -15.377563 3.9722831 25
67.844536 -6.5466905 7.1601996 20
10.342113 -2.9007807 -0.74679428 7
13.604982 -1.321645 -0.47849789 5
7.1790118 -2.0176575 -1.0405126 5
8.6690741 -0.84289914 -0.90872258 5
5.5050297 -1.553399 -1.2094798 4
6.3887544 -0.62173486 -1.1256752 5
4.4653745 -1.2675691 -1.3201886 20
5.0931344 -0.4942916 -1.2661796 5
38.349655 -7.8843236 9.0164433 31
42.419796 -8.7135792 6.8378983 13
46.168831 -1.1248767 8.9618759 18
44.273026 -9.0943365 3.9512055 59
77.114632 -1.9700067 9.4536572 9
22.625843 -4.6509867 0.40258336 5
25.478283 -0.67615932 1.3339126 31
11.647265 -2.3955326 -0.62342954 7
15.711645 -0.42144921 -0.27374318 4
7.813941 -1.6094092 -0.97387415 5
9.4877892 -0.25465277 -0.82567668 5
5.8966932 -1.2162505 -1.1613692 5
6.8125806 -0.18058744 -1.075107 5
4.7640538 -0.98489916 -1.2932528 21
5.3583212 -0.1355762 -1.2274994 4
50.480625 -14.204113 11.129722 24
61.880302 -17.366137 9.0278101 1
45.390614 -4.3486986 8.0258808 34
54.86977 -15.377563 3.9722831 25
67.844536 -6.5466905 7.1601996 20
10.342113 -2.9007807 -0.74679428 7
13.604982 -1.321645 -0.47849789 5
7.1790118 -2.0176575 -1.0405126 5
8.6690741 -0.84289914 -0.90872258 5
5.5050297 -1.553399 -1.2094798 4
6.3887544 -0.62173486 -1.1256752 5
4.4653745 -1.2675691 -1.3201886 20
5.0931344 -0.4942916 -1.2661796 5
38.349655 -7.8843236 9.0164433 31
42.419796 -8.7135792 6.8378983 13
65.972908 -1.6054194 12.808944 1
44.273026 -9.0943365 3.9512055 59
77.114632 -1.9700067 9.4536572 9
22.625843 -4.6509867 0.40258336 5
25.478283 -0.67615932 1.3339126 31
11.647265 -2.3955326 -0.62342954 7
15.711645 -0.42144921 -0.27374318 4
7.813941 -1.6094092 -0.97387415 5
9.4877892 -0.25465277 -0.82567668 5
5.8966932 -1.2162505 -1.1613692 5
6.8125806 -0.18058744 -1.075107 5
4.7640538 -0.98489916 -1.2932528 21
5.3583212 -0.1355762 -1.2274994 4
50.4991 -14.390206 11.144264 25
61.91048 -17.596291 9.0406837 9
41.720406 -4.1369019 7.3788142 37
55.060787 -15.62823 3.9898529 23
67.505783 -6.740027 7.1267509 18
10.339633 -2.9371078 -0.74731612 7
13.60301 -1.367003 -0.47858557 5
7.1746626 -2.0421324 -1.0408597 5
8.668705 -0.87189043 -0.90898299 5
5.4998479 -1.5716456 -1.2094798 4
6.3744087 -0.64168829 -1.1235045 6
4.4542184 -1.2803715 -1.3181226 20
5.0842257 -0.5104543 -1.2643665 5
38.437759 -8.0353842 9.0433969 34
42.439007 -8.8642988 6.8457026 1
45.863102 -1.2696487 8.9032555 18
44.376709 -9.2691116 3.9631896 38
77.24411 -2.2296474 9.4703913 20
22.642107 -4.7326417 0.40315059 5
25.480894 -0.76079273 1.3341744 53
11.653918 -2.4372115 -0.62421721 6
15.742641 -0.47451827 -0.27431041 4
7.8134184 -1.6363307 -0.97448266 5
9.4893818 -0.28618792 -0.82589418 5
5.8902259 -1.2352936 -1.1608931 5
6.8168812 -0.20332171 -1.0758899 5
4.7631249 -1.0011895 -1.2938995 20
5.3675833 -0.15361468 -1.2297455 4
50.4991 -14.390206 11.144264 25
61.91048 -17.596291 9.0406837 9
45.6577 -4.5271201 8.0757551 1
55.060787 -15.62823 3.9898529 23
67.506958 -6.7282448 7.1267509 18
10.340145 -2.935303 -0.74731612 7
13.60301 -1.367003 -0.47858557 5
7.1750193 -2.04088 -1.0408597 5
8.668705 -0.87189043 -0.90898299 5
5.5001221 -1.5706857 -1.2094798 4
6.3745213 -0.64057571 -1.1235045 6
4.4544415 -1.2795941 -1.3181226 20
5.0843143 -0.5095669 -1.2643665 5
38.439163 -8.028676 9.0433969 34
58.969788 -12.307018 9.5140562 1
65.790916 -1.8078301 12.774631 25
44.378323 -9.2613668 3.9631896 38
77.244499 -2.2161655 9.4703913 20
22.642931 -4.7286897 0.40315059 5
25.481026 -0.75634551 1.3341744 53
11.654344 -2.4351776 -0.62421721 6
15.742805 -0.4690291 -0.27431041 4
7.813704 -1.634967 -0.97448266 5
9.48948 -0.28287548 -0.82589418 5
5.8904414 -1.2342656 -1.1608931 5
6.8169518 -0.20094214 -1.0758899 5
4.7634745 -0.9995268 -1.2938995 20
5.36761 -0.15267786 -1.2297455 4
50.504948 -14.582679 11.156728 25
61.970005 -17.847242 9.0584288 2
41.593044 -4.2709451 7.3588638 31
54.922009 -15.7962 3.9837642 81
67.201118 -6.934761 7.0969596 24
18.506271 -5.3162694 0 5
10.332231 -2.972069 -0.74749005 7
13.615551 -1.4162848 -0.47919935 5
7.1726084 -2.067287 -1.0415537 5
8.6680822 -0.90240157 -0.90924352 5
5.5039997 -1.5926008 -1.2115606 5
6.3844905 -0.66409266 -1.1256752 5
4.4545617 -1.2964824 -1.3195 20
5.0897436 -0.52805942 -1.2661796 5
38.66349 -8.2164927 9.1029186 20
58.713905 -12.467644 9.4797163 9
45.716366 -1.4173326 8.8756132 37
44.513821 -9.4519186 3.978224 38
77.437172 -2.4922392 9.4950342 18
22.665405 -4.8160143 0.40384865 5
11.648215 -2.4763634 -0.62434846 6
15.728581 -0.52356666 -0.27409226 4
7.8176575 -1.6643007 -0.97569966 5
9.4834576 -0.31583485 -0.8254593 5
5.8908973 -1.2558442 -1.1618454 5
6.808805 -0.22449741 -1.0747154 5
4.7528715 -1.0146333 -1.2919595 20
5.3548698 -0.17103505 -1.2269379 4
50.504948 -14.582679 11.156728 25
61.970005 -17.847242 9.0584288 2
41.593044 -4.2709451 7.3588638 31
54.922009 -15.7962 3.9837642 81
67.199905 -6.9464893 7.0969596 24
18.506271 -5.3162694 0 5
10.332231 -2.972069 -0.74749005 7
13.615551 -1.4162848 -0.47919935 5
7.1722474 -2.0685387 -1.0415537 5
8.6680822 -0.90240157 -0.90924352 5
5.5037212 -1.5935613 -1.2115606 5
6.3844905 -0.66409266 -1.1256752 5
4.4543352 -1.29726 -1.3195 20
5.0897436 -0.52805942 -1.2661796 5
38.662056 -8.2232418 9.1029186 20
58.711731 -12.477891 9.4797163 9
45.716366 -1.4173326 8.8756132 37
44.512169 -9.4596872 3.978224 38
77.437172 -2.4922392 9.4950342 18
22.664564 -4.8199706 0.40384865 5
11.647782 -2.4783964 -0.62434846 6
15.72849 -0.52630574 -0.27409226 4
7.8173666 -1.6656651 -0.97569966 5
9.4834023 -0.31748998 -0.8254593 5
5.8908973 -1.2558442 -1.1618454 5
6.8087659 -0.22568576 -1.0747154 5
4.7526941 -1.0154629 -1.2919595 20
5.3548403 -0.17196964 -1.2269379 4
50.491287 -14.769874 11.165038 25
62.194885 -18.147373 9.1005287 1
41.541161 -4.4122066 7.3523588 50
55.3885 -16.139954 4.021687 80
66.905777 -7.1522198 7.0684757 18
18.511604 -5.3878274 0 5
10.333764 -3.011611 -0.74835986 7
13.617977 -1.4646038 -0.47946244 5
7.1721115 -2.095649 -1.0425949 5
8.6698236 -0.93318421 -0.90976441 5
5.493433 -1.6113832 -1.2105201 5
6.3747892 -0.68558723 -1.1243728 5
4.452085 -1.3134829 -1.3201886 22
5.0830455 -0.54530722 -1.2649709 5
38.890263 -8.4137917 9.1635637 26
58.544727 -12.656144 9.459815 6
45.463421 -1.5683832 8.8274775 39
39.140583 -8.4608269 3.5003924 113
77.618958 -2.7693319 9.5184603 18
22.66226 -4.9022269 0.40411043 5
11.64882 -2.5211535 -0.62487358 6
15.729055 -0.5812968 -0.27413589 4
7.8090792 -1.6924165 -0.97539538 5
9.4921923 -0.35095465 -0.82632911 5
5.8936729 -1.277962 -1.1632739 5
6.812871 -0.2496289 -1.0754985 5
4.7585597 -1.0341012 -1.2945461 20
5.3639455 -0.19099884 -1.229184 4
50.491287 -14.769874 11.165038 25
62.194885 -18.147373 9.1005287 1
41.541161 -4.4122066 7.3523588 50
55.3885 -16.139954 4.021687 80
66.905777 -7.1522198 7.0684757 18
18.511604 -5.3878274 0 5
10.333764 -3.011611 -0.74835986 7
13.617977 -1.4646038 -0.47946244 5
7.1721115 -2.095649 -1.0425949 5
8.6698236 -0.93318421 -0.90976441 5
5.493433 -1.6113832 -1.2105201 5
6.3747892 -0.68558723 -1.1243728 5
4.452085 -1.3134829 -1.3201886 22
5.0830455 -0.54530722 -1.2649709 5
38.890263 -8.4137917 9.1635637 26
58.544727 -12.656144 9.459815 6
45.463421 -1.5683832 8.8274775 39
39.140583 -8.4608269 3.5003924 113
77.618958 -2.7693319 9.5184603 18
22.66226 -4.9022269 0.40411043 5
11.64882 -2.5211535 -0.62487358 6
15.729055 -0.5812968 -0.27413589 4
7.8090792 -1.6924165 -0.97539538 5
9.4921923 -0.35095465 -0.82632911 5
5.8936729 -1.277962 -1.1632739 5
6.812871 -0.2496289 -1.0754985 5
4.7585597 -1.0341012 -1.2945461 20
5.3639455 -0.19099884 -1.229184 4
50.514187 -14.977781 11.182177 24
41.039318 -4.4821262 10.269097 3
62.393837 -18.453863 9.1394968 1
41.407234 -4.5515261 7.331542 41
59.459488 -17.563234 4.3221083 4
66.772858 -7.3856444 7.0572391 27
10.329831 -3.0515878 -0.7488817 7
13.624933 -1.5158858 -0.47990087 4
7.1620092 -2.1212177 -1.0422479 5
8.6688156 -0.96522903 -0.91002482 5
5.4851475 -1.6308084 -1.21 4
6.3795748 -0.70976174 -1.1256752 5
4.4449387 -1.3291011 -1.3195 21
5.0930681 -0.56526691 -1.2679927 5
38.806824 -8.5447493 9.1512098 30
38.86462 -8.5503769 6.2829995 3
45.425488 -1.733791 8.8212814 26
39.126339 -8.6079731 3.5019178 255
47.2393 -1.8606002 5.7921257 3
22.697845 -4.9970827 0.40507033 5
26.726294 -1.077978 1.3999867 47
11.637064 -2.5632944 -0.62474233 5
15.729316 -0.63904363 -0.27417952 4
7.8052473 -1.7215619 -0.97569966 5
9.4883528 -0.38564295 -0.82611161 5
5.891345 -1.3000841 -1.1637501 5
6.8045087 -0.27430427 -1.0743239 5
4.747664 -1.0499685 -1.2926062 20
5.3656435 -0.21075092 -1.2297455 4
50.514187 -14.977781 11.182177 24
41.039318 -4.4821262 10.269097 3
62.393837 -18.453863 9.1394968 1
41.407234 -4.5515261 7.331542 41
59.459488 -17.563234 4.3221083 4
66.772858 -7.3856444 7.0572391 27
10.329299 -3.053391 -0.7488817 7
13.624933 -1.5158858 -0.47990087 4
7.1620092 -2.1212177 -1.0422479 5
8.6688156 -0.96522903 -0.91002482 5
5.4851475 -1.6308084 -1.21 4
6.3794508 -0.71087515 -1.1256752 5
4.4449387 -1.3291011 -1.3195 21
5.0929694 -0.56615585 -1.2679927 5
38.806824 -8.5447493 9.1512098 30
58.570297 -12.886557 9.4715214 1
45.425186 -1.741719 8.8212814 26
39.126339 -8.6079731 3.5019178 255
22.697845 -4.9970827 0.40507033 5
26.726103 -1.0826426 1.3999867 47
11.637064 -2.5632944 -0.62474233 5
15.729204 -0.64178884 -0.27417952 4
7.8052473 -1.7215619 -0.97569966 5
9.488286 -0.38729897 -0.82611161 5
5.8911185 -1.3011123 -1.1637501 5
6.804461 -0.27549186 -1.0743239 5
4.7474809 -1.0507971 -1.2926062 20
5.3656435 -0.21075092 -1.2297455 4
50.506397 -15.157866 11.191525 23
40.727707 -4.5848284 10.194811 59
62.825596 -18.808382 9.2118664 70
41.418827 -4.6918597 7.3363128 34
55.520576 -16.599842 4.0396042 22
66.32309 -7.558619 7.0122919 27
10.331062 -3.0912068 -0.74975151 7
13.639689 -1.5633323 -0.48060232 5
7.1573062 -2.1456683 -1.0425949 5
8.6705084 -0.99453616 -0.91054577 5
5.4820499 -1.6496949 -1.2105201 4
6.3648286 -0.73062634 -1.1235045 6
4.4405065 -1.3438337 -1.3195 22
5.0910645 -0.58304155 -1.2679927 5
38.706951 -8.6574345 9.1343641 28
38.836048 -8.6792097 6.2829995 6
45.384827 -1.890918 8.8146086 25
39.097576 -8.7376738 3.5019178 255
47.190369 -2.0236816 5.7869539 62
22.678707 -5.0717783 0.40502667 5
26.697426 -1.1701746 1.3986783 54
11.638243 -2.6040516 -0.62526739 5
15.717001 -0.69350737 -0.274005 5
7.7946529 -1.7463496 -0.97509116 5
9.4819717 -0.41854385 -0.82567668 5
5.8891664 -1.3211788 -1.1642262 5
6.8158445 -0.29858682 -1.0762815 5
4.7439699 -1.0665345 -1.2926062 20
5.3673491 -0.22864448 -1.2303071 4
50.506397 -15.157866 11.191525 23
40.727707 -4.5848284 10.194811 59
62.825596 -18.808382 9.2118664 70
41.418827 -4.6918597 7.3363128 34
58.925438 -17.618113 4.2874913 1
66.32309 -7.558619 7.0122919 27
10.331601 -3.0894034 -0.74975151 7
13.639689 -1.5633323 -0.48060232 5
7.1573062 -2.1456683 -1.0425949 5
8.6705084 -0.99453616 -0.91054577 5
5.4820499 -1.6496949 -1.2105201 4
6.3649559 -0.72951549 -1.1235045 6
4.4405065 -1.3438337 -1.3195 22
5.091166 -0.58215308 -1.2679927 5
38.706951 -8.6574345 9.1343641 28
52.316956 -11.69255 8.4659138 1
45.385159 -1.8829968 8.8146086 25
39.097576 -8.7376738 3.5019178 255
47.19072 -2.0154455 5.7869539 62
22.678707 -5.0717783 0.40502667 5
26.697626 -1.1655149 1.3986783 54
11.638243 -2.6040516 -0.62526739 5
15.717122 -0.69076425 -0.274005 5
7.7946529 -1.7463496 -0.97509116 5
9.4820442 -0.41688889 -0.82567668 5
5.8893967 -1.3201507 -1.1642262 5
6.815897 -0.29739723 -1.0762815 5
4.7441564 -1.0657066 -1.2926062 20
5.3673491 -0.22864448 -1.2303071 4
50.511669 -15.351856 11.204509 23
40.222267 -4.6701922 10.072206 79
62.965687 -19.090076 9.242137 80
41.984219 -4.9043694 7.4395304 36
58.830162 -17.813572 4.2850561 31
65.935791 -7.7477326 6.9741392 16
18.614487 -5.6299071 0 5
10.325527 -3.1268959 -0.75009942 7
13.639112 -1.6115199 -0.48077771 4
7.1497731 -2.170639 -1.0425949 5
8.6571064 -1.0236303 -0.90950394 5
5.4785967 -1.6695355 -1.2110404 4
6.3599253 -0.7514407 -1.1230704 6
4.4357891 -1.3593256 -1.3195 22
5.0891032 -0.59992099 -1.2679927 5
38.719254 -8.8022165 9.1444712 30
45.691784 -1.9756321 12.22813 1
52.157829 -11.848291 8.4467926 3
44.331436 -1.9944203 8.6111031 25
39.054695 -8.8713379 3.5008283 79
47.037155 -2.1734161 5.7690039 80
22.685242 -5.1564531 0.40546301 5
26.543768 -1.2516698 1.3908279 49
11.638821 -2.6468766 -0.6257925 5
15.722105 -0.74597621 -0.27413589 4
7.7933478 -1.7746503 -0.97569966 5
9.4855089 -0.45021868 -0.82611161 5
5.8775744 -1.3390633 -1.1627978 5
6.8074174 -0.32084352 -1.075107 5
4.7451158 -1.0833368 -1.2938995 20
5.3616514 -0.24715842 -1.229184 4
50.511669 -15.351856 11.204509 23
40.222267 -4.6701922 10.072206 79
62.965687 -19.090076 9.242137 80
41.984219 -4.9043694 7.4395304 36
58.830162 -17.813572 4.2850561 31
65.935791 -7.7477326 6.9741392 16
18.614487 -5.6299071 0 5
10.325527 -3.1268959 -0.75009942 7
13.639112 -1.6115199 -0.48077771 4
7.1497731 -2.170639 -1.0425949 5
8.6571064 -1.0236303 -0.90950394 5
5.4785967 -1.6695355 -1.2110404 4
6.3599253 -0.7514407 -1.1230704 6
4.4357891 -1.3593256 -1.3195 22
5.0891032 -0.59992099 -1.2679927 5
38.719254 -8.8022165 9.1444712 30
45.691784 -1.9756321 12.22813 1
52.157829 -11.848291 8.4467926 3
44.331436 -1.9944203 8.6111031 25
39.054695 -8.8713379 3.5008283 79
47.037155 -2.1734161 5.7690039 80
22.685242 -5.1564531 0.40546301 5
26.543768 -1.2516698 1.3908279 49
11.638821 -2.6468766 -0.6257925 5
15.722105 -0.74597621 -0.27413589 4
7.7933478 -1.7746503 -0.97569966 5
9.4855089 -0.45021868 -0.82611161 5
5.8775744 -1.3390633 -1.1627978 5
6.8074174 -0.32084352 -1.075107 5
4.7451158 -1.0833368 -1.2938995 20
5.3616514 -0.24715842 -1.229184 4
50.522842 -15.557765 11.21957 23
40.115761 -4.8069086 10.04986 77
63.136669 -19.394894 9.277626 81
41.799744 -5.0381904 7.4100399 31
58.390156 -17.914206 4.2577448 20
65.672462 -7.9609303 6.9493136 41
18.636749 -5.7112885 0 5
10.323534 -3.1676502 -0.75079525 7
13.643035 -1.6627066 -0.48112845 4
7.1488667 -2.1990173 -1.0436362 5
8.6681051 -1.0571557 -0.91106665 5
5.4771123 -1.6910504 -1.2120807 4
6.3669047 -0.77593422 -1.1248069 5
4.4330716 -1.3762895 -1.3201886 21
5.0940948 -0.61944503 -1.2698059 5
38.746067 -8.9577904 9.1585093 35
45.802444 -2.1486208 12.259794 1
52.032253 -12.020479 8.4335251 3
44.245392 -2.1530809 8.5958519 31
46.999134 -2.3443205 5.7653532 80
22.724638 -5.2530794 0.40651014 5
26.611309 -1.3526121 1.3946223 24
11.63877 -2.6917686 -0.62631762 5
15.711777 -0.80321497 -0.274005 4
7.7819567 -1.8020817 -0.97509116 5
9.4887695 -0.48523381 -0.82654655 5
5.877408 -1.3617057 -1.1637501 4
6.8061957 -0.34579179 -1.075107 5
4.7387609 -1.1001743 -1.2932528 21
5.3582759 -0.26668921 -1.2286224 4
50.522842 -15.557765 11.21957 23
40.115761 -4.8069086 10.04986 77
63.136669 -19.394894 9.277626 81
41.799744 -5.0381904 7.4100399 31
58.390156 -17.914206 4.2577448 20
65.665054 -7.9600325 6.9485297 41
18.636749 -5.7112885 0 5
10.322981 -3.169452 -0.75079525 7
13.643035 -1.6627066 -0.48112845 4
7.1488667 -2.1990173 -1.0436362 5
8.6681042 -1.0571618 -0.91106665 5
5.4771123 -1.6910504 -1.2120807 4
6.3667693 -0.77704549 -1.1248069 5
4.4330716 -1.3762895 -1.3201886 21
5.093987 -0.62033415 -1.2698059 5
38.746067 -8.9577904 9.1585093 35
45.828606 -2.1578615 12.266903 1
52.032253 -12.020479 8.4335251 3
44.245018 -2.1608033 8.5958519 31
46.998722 -2.3525236 5.7653532 80
22.724638 -5.2530794 0.40651014 5
26.611074 -1.3572567 1.3946223 24
11.63877 -2.6917686 -0.62631762 5
15.711637 -0.80595708 -0.274005 4
7.7819567 -1.8020817 -0.97509116 5
9.4886847 -0.48688987 -0.82654655 5
5.8771706 -1.3627316 -1.1637501 4
6.8061357 -0.34697971 -1.075107 5
4.7385688 -1.1010014 -1.2932528 21
5.3582759 -0.26668921 -1.2286224 4
50.519588 -15.750045 11.230996 24
40.016876 -4.9368148 10.029325 77
63.158413 -19.643108 9.2908478 9
40.359856 -5.007699 7.1576314 32
58.010513 -18.019501 4.2346087 30
65.375359 -8.1565781 6.9208293 34
18.642962 -5.7844625 0 5
10.311854 -3.2054665 -0.75079525 7
13.634669 -1.7100089 -0.48104078 4
7.1482372 -2.2261705 -1.0446774 5
8.664362 -1.0874127 -0.91106665 5
5.4758434 -1.7116214 -1.2131212 3
6.3591323 -0.79865283 -1.1239387 5
4.4305329 -1.392478 -1.3208773 20
5.0869756 -0.6375103 -1.2685971 5
38.833145 -9.120841 9.1865854 18
45.86903 -2.3202553 12.279827 6
51.614952 -12.114001 8.3726501 1
43.97987 -2.3017926 8.5458097 38
52.354534 -12.287611 4.7018342 1
46.92828 -2.5132539 5.7577472 81
22.808365 -5.35638 0.40834266 5
11.636594 -2.7340934 -0.62671143 5
15.728695 -0.86188442 -0.27435404 4
7.7804499 -1.8303723 -0.97569966 6
9.4943886 -0.52041405 -0.82719892 5
5.8747668 -1.3838017 -1.1642262 5
6.7999516 -0.37047014 -1.0743239 5
4.7346964 -1.1175354 -1.2932528 20
5.3670435 -0.28590146 -1.2308686 4
50.519588 -15.750045 11.230996 24
40.016876 -4.9368148 10.029325 77
63.158413 -19.643108 9.2908478 9
40.359856 -5.007699 7.1576314 32
58.010513 -18.019501 4.2346087 30
65.375359 -8.1565781 6.9208293 34
18.642962 -5.7844625 0 5
10.312413 -3.2036664 -0.75079525 7
13.634669 -1.7100089 -0.48104078 4
7.1482372 -2.2261705 -1.0446774 5
8.6643629 -1.0874068 -0.91106665 5
5.4758434 -1.7116214 -1.2131212 3
6.359271 -0.79754293 -1.1239387 5
4.4305329 -1.392478 -1.3208773 20
5.0870872 -0.63662249 -1.2685971 5
51.008747 -11.981088 12.069468 1
45.869438 -2.3122494 12.279827 6
51.614952 -12.114001 8.3726501 1
43.98027 -2.2941167 8.5458097 38
52.354534 -12.287611 4.7018342 1
46.928715 -2.5050635 5.7577472 81
22.808365 -5.35638 0.40834266 5
11.636594 -2.7340934 -0.62671143 5
15.728845 -0.85913926 -0.27435404 4
7.7804499 -1.8303723 -0.97569966 6
9.4944792 -0.51875687 -0.82719892 5
5.8750086 -1.3827763 -1.1642262 5
6.8000159 -0.36928332 -1.0743239 5
4.7348914 -1.116709 -1.2932528 20
5.3670435 -0.28590146 -1.2308686 4
50.530048 -15.937351 11.245018 23
39.887169 -5.0551586 10.000939 73
63.258228 -19.904467 9.3152018 1
40.106117 -5.1113281 7.1155634 38
57.819584 -18.170639 4.2250409 48
65.121056 -8.3442602 6.8967876 39
18.6523 -5.8552446 0 5
10.318385 -3.2430873 -0.75201291 7
13.643791 -1.7571262 -0.48156688 4
7.1478992 -2.2520986 -1.0457186 5
8.668107 -1.1170844 -0.91184801 5
5.4584823 -1.7260754 -1.2105201 4
6.3639174 -0.81956774 -1.125241 5
4.4281802 -1.4078927 -1.3215659 19
5.0873537 -0.65379655 -1.2692015 5
50.871574 -12.127007 12.046445 16
45.943508 -2.4687431 12.301798 2
51.50243 -12.267928 8.3609438 1
43.984669 -2.4406264 8.548193 32
52.160866 -12.424796 4.688107 34
46.672401 -2.646646 5.7273231 103
22.78075 -5.4296675 0.40816811 5
11.627463 -2.7726667 -0.62671143 5
15.730899 -0.91158104 -0.2744413 4
7.7888184 -1.8596238 -0.97752517 5
9.4951925 -0.55038178 -0.82741636 5
5.8775516 -1.4039636 -1.1656548 5
6.801219 -0.39197135 -1.0747154 5
4.7288141 -1.1318414 -1.2926062 20
5.3563366 -0.30315536 -1.2286224 5
50.530048 -15.937351 11.245018 23
39.887169 -5.0551586 10.000939 73
63.258228 -19.904467 9.3152018 1
40.106117 -5.1113281 7.1155634 38
57.819584 -18.170639 4.2250409 48
65.122513 -8.3328934 6.8967876 39
18.6523 -5.8552446 0 5
10.318385 -3.2430873 -0.75201291 7
13.643791 -1.7571262 -0.48156688 4
7.1482921 -2.2508509 -1.0457186 5
8.668107 -1.1170844 -0.91184801 5
5.4587836 -1.7251228 -1.2105201 4
6.3639174 -0.81956774 -1.125241 5
4.4284253 -1.4071199 -1.3215659 19
5.0873537 -0.65379655 -1.2692015 5
50.873688 -12.118128 12.046445 16
45.943508 -2.4687431 12.301798 2
51.50457 -12.258939 8.3609438 1
43.984669 -2.4406264 8.548193 32
52.163036 -12.415692 4.688107 34
46.672401 -2.646646 5.7273231 103
22.781698 -5.4256911 0.40816811 5
11.627948 -2.7706375 -0.62671143 5
15.731057 -0.90884149 -0.2744413 4
7.7891426 -1.8582643 -0.97752517 5
9.4952879 -0.54872453 -0.82741636 5
5.8775516 -1.4039636 -1.1656548 5
6.8012877 -0.39078432 -1.0747154 5
4.729012 -1.131016 -1.2926062 20
5.356389 -0.30222049 -1.2286224 5
50.527203 -16.14031 11.257483 23
39.125046 -5.1043811 9.8143167 66
63.569324 -20.258739 9.3719158 1
40.057823 -5.2544498 7.1103597 38
57.448418 -18.285591 4.2027745 68
65.076744 -8.5695763 6.8952198 34
18.60689 -5.9159894 0 5
10.304052 -3.2801266 -0.75183892 7
13.639737 -1.8074493 -0.48165455 4
7.1447105 -2.2785428 -1.0464127 5
8.6688852 -1.1494998 -0.91236889 5
5.4617372 -1.7481072 -1.2126009 5
6.3559895 -0.84224194 -1.1243728 5
4.4186649 -1.4218649 -1.3201886 19
5.0801129 -0.67180413 -1.2679927 5
50.793415 -12.295909 12.038021 24
51.428093 -12.440081 8.3558702 2
44.061176 -2.6068859 8.5648727 26
52.126862 -12.609139 4.6889791 31
46.573219 -2.8123155 5.7163706 168
22.76166 -5.5091538 0.40816811 5
11.629846 -2.8161764 -0.62736785 5
15.747581 -0.96771336 -0.27479035 5
7.7750444 -1.8850448 -0.97661233 5
9.5056429 -0.58428079 -0.82850361 5
5.8795209 -1.4272352 -1.1670833 5
6.7973452 -0.41556063 -1.0743239 5
4.7248344 -1.1483412 -1.2926062 20
5.3503819 -0.32156253 -1.2274994 4
50.527203 -16.14031 11.257483 23
39.125046 -5.1043811 9.8143167 66
63.569324 -20.258739 9.3719158 1
40.057823 -5.2544498 7.1103597 38
57.448418 -18.285591 4.2027745 68
65.075249 -8.5809355 6.8952198 34
18.60689 -5.9159894 0 5
10.30348 -3.2819247 -0.75183892 7
13.639737 -1.8074493 -0.48165455 4
7.1443129 -2.2797894 -1.0464127 5
8.6688833 -1.1495057 -0.91236889 5
5.4614325 -1.7490604 -1.2126009 5
6.3558421 -0.84335113 -1.1243728 5
4.4184165 -1.4226362 -1.3201886 19
5.0799956 -0.67269075 -1.2679927 5
50.791271 -12.304773 12.038021 24
51.425915 -12.449058 8.3558702 2
44.060722 -2.6145761 8.5648727 26
52.12466 -12.618237 4.6889791 31
46.572727 -2.8204439 5.7163706 168
22.760698 -5.5131264 0.40816811 5
11.629354 -2.8182061 -0.62736785 5
15.747244 -0.97320426 -0.27479035 5
7.7747154 -1.8864018 -0.97661233 5
9.5054379 -0.58759886 -0.82850361 5
5.879271 -1.4282614 -1.1670833 5
6.7971997 -0.41793332 -1.0743239 5
4.7244334 -1.1499903 -1.2926062 20
5.3503256 -0.32249632 -1.2274994 4
50.538029 -16.338406 11.272543 20
38.892994 -5.2122545 9.7605648 61
63.743256 -20.559563 9.4081011 1
40.100235 -5.4024606 7.1212015 38
57.396107 -18.48984 4.2036448 79
58.520679 -7.9247694 6.2032413 1
18.647997 -6.0008278 0 5
10.308576 -3.3232336 -0.7530567 6
13.650674 -1.8574054 -0.48226836 4
7.1363115 -2.3047142 -1.0464127 5
8.6623554 -1.1794239 -0.91210848 5
5.4576197 -1.7688694 -1.2131212 6
6.3601785 -0.86652684 -1.1256752 5
4.4179921 -1.4395438 -1.3215659 19
5.0800209 -0.69074506 -1.2685971 5
50.724358 -12.476175 12.032407 23
51.315006 -12.611986 8.344944 2
44.266869 -2.7818837 8.6068134 34
52.196384 -12.828644 4.6994376 30
46.629463 -2.9872727 5.7245846 173
22.797142 -5.6062756 0.40917164 5
45.887463 -2.9799967 2.4081082 3
11.624294 -2.8599768 -0.62763041 5
15.76121 -1.0293016 -0.27509576 5
7.7777205 -1.9159051 -0.97782934 5
9.4884186 -0.61980867 -0.82719892 5
5.8647189 -1.4464217 -1.1651785 5
6.8006272 -0.4419744 -1.075107 5
4.7227345 -1.1670549 -1.2932528 20
5.3491673 -0.34117052 -1.2274994 5
50.538029 -16.338406 11.272543 20
38.892994 -5.2122545 9.7605648 61
63.743256 -20.559563 9.4081011 1
40.100235 -5.4024606 7.1212015 38
57.396107 -18.48984 4.2036448 79
64.580765 -8.7337236 6.8458304 34
18.647997 -6.0008278 0 5
10.309155 -3.3214345 -0.7530567 6
13.650674 -1.8574054 -0.48226836 4
7.1367135 -2.3034687 -1.0464127 5
8.6623564 -1.179418 -0.91210848 5
5.4579277 -1.7679169 -1.2131212 6
6.3603296 -0.86541682 -1.1256752 5
4.4182429 -1.4387726 -1.3215659 19
5.080142 -0.68985838 -1.2685971 5
50.726532 -12.467321 12.032407 23
51.317211 -12.60303 8.344944 2
44.267349 -2.7741578 8.6068134 34
52.198624 -12.819532 4.6994376 30
46.629978 -2.9791343 5.7245846 173
22.79812 -5.6022964 0.40917164 5
45.887985 -2.971988 2.4081082 3
11.624793 -2.8579478 -0.62763041 5
15.761568 -1.023806 -0.27509576 5
7.7780547 -1.9145477 -0.97782934 5
9.4886341 -0.61649656 -0.82719892 5
5.8649716 -1.4453982 -1.1651785 5
6.8007812 -0.4396005 -1.075107 5
4.7231417 -1.1654061 -1.2932528 20
5.349227 -0.34023687 -1.2274994 5
50.54401 -16.525669 11.286047 20
38.70005 -5.3171043 9.7164755 50
64.206642 -20.94438 9.4867334 79
40.067467 -5.5333881 7.1185999 34
57.514687 -18.738798 4.2168651 73
58.497955 -8.1089191 6.2035031 6
18.62324 -6.0610852 0 5
10.302825 -3.3571496 -0.75340456 6
13.632067 -1.9009389 -0.48182991 4
7.1337423 -2.3286612 -1.0471069 5
8.6583977 -1.2081369 -0.91210848 6
5.4450655 -1.7837174 -1.2115606 6
6.3501091 -0.88548589 -1.1243728 5
4.4066019 -1.4511547 -1.3195 19
5.0778255 -0.70670092 -1.2685971 5
50.609268 -12.616609 12.014437 22
51.246384 -12.765972 8.3402615 2
44.282398 -2.9225519 8.6115799 41
52.295986 -13.02748 4.7120752 28
46.708977 -3.1397314 5.7355371 80
22.813372 -5.6863327 0.40978247 4
45.67363 -3.1102529 2.3973792 9
11.627364 -2.8995037 -0.62828678 5
15.765568 -1.0765762 -0.27522665 5
7.7812939 -1.9427365 -0.97904634 5
9.4939919 -0.64846414 -0.8278513 5
5.8815732 -1.4702015 -1.1694641 5
6.7968221 -0.46198449 -1.0747154 5
4.7169085 -1.1804752 -1.2926062 21
5.3553619 -0.35845551 -1.229184 4
50.54401 -16.525669 11.286047 20
38.70005 -5.3171043 9.7164755 50
64.206642 -20.94438 9.4867334 79
40.067467 -5.5333881 7.1185999 34
57.514687 -18.738798 4.2168651 73
64.132767 -8.8898115 6.8014054 1
18.62324 -6.0610852 0 5
10.302825 -3.3571496 -0.75340456 6
13.632067 -1.9009389 -0.48182991 4
7.1337423 -2.3286612 -1.0471069 5
8.6583977 -1.2081369 -0.91210848 6
5.4450655 -1.7837174 -1.2115606 6
6.3501091 -0.88548589 -1.1243728 5
4.4066019 -1.4511547 -1.3195 19
5.0778255 -0.70670092 -1.2685971 5
50.609268 -12.616609 12.014437 22
51.246384 -12.765972 8.3402615 2
44.282398 -2.9225519 8.6115799 41
52.295986 -13.02748 4.7120752 28
46.708977 -3.1397314 5.7355371 80
22.813372 -5.6863327 0.40978247 4
45.67363 -3.1102529 2.3973792 9
11.627364 -2.8995037 -0.62828678 5
15.765568 -1.0765762 -0.27522665 5
7.7812939 -1.9427365 -0.97904634 5
9.4939919 -0.64846414 -0.8278513 5
5.8815732 -1.4702015 -1.1694641 5
6.7968221 -0.46198449 -1.0747154 5
4.7169085 -1.1804752 -1.2926062 21
5.3553619 -0.35845551 -1.229184 4
50.546379 -16.721975 11.29955 23
38.513096 -5.4284673 9.6741982 38
64.340012 -21.23667 9.5173521 81
40.089352 -5.6790843 7.1259723 30
57.527084 -18.965219 4.2226057 25
63.995502 -9.0985775 6.7901688 73
18.642334 -6.1393576 0 5
10.295781 -3.3946564 -0.75375247 6
13.637716 -1.9502789 -0.48226836 4
7.1326208 -2.3558817 -1.048148 5
8.6615105 -1.2394078 -0.91288984 5
5.4411268 -1.8034843 -1.2120807 6
6.3518543 -0.90834206 -1.125241 5
4.4083471 -1.4688131 -1.3215659 20
5.0849347 -0.72578871 -1.2710146 5
50.569641 -12.794387 12.01556 23
51.134476 -12.927829 8.3293352 3
44.428616 -3.0879831 8.6420822 30
52.375751 -13.241695 4.7234054 28
46.742287 -3.3059037 5.7410135 80
22.824886 -5.7739034 0.41034967 5
45.488178 -3.2572005 2.3882205 16
11.629273 -2.9431372 -0.62894315 5
15.771687 -1.1323149 -0.2754012 5
7.772059 -1.9692764 -0.978742 5
9.486701 -0.68124598 -0.82741636 5
5.8573756 -1.4858902 -1.1656548 5
6.7927051 -0.48553261 -1.0743239 5
4.7033968 -1.1945519 -1.2900196 21
5.3637991 -0.37782338 -1.2314302 5
50.546379 -16.721975 11.29955 23
38.513096 -5.4284673 9.6741982 38
64.340012 -21.23667 9.5173521 81
40.089352 -5.6790843 7.1259723 30
57.527084 -18.965219 4.2226057 25
63.993912 -9.109746 6.7901688 73
18.642334 -6.1393576 0 5
10.295781 -3.3946564 -0.75375247 6
13.637716 -1.9502789 -0.48226836 4
7.1322103 -2.3571265 -1.048148 5
8.6615105 -1.2394078 -0.91288984 5
5.4408116 -1.8044341 -1.2120807 6
6.3518543 -0.90834206 -1.125241 5
4.4080911 -1.4695824 -1.3215659 20
5.0849347 -0.72578871 -1.2710146 5
50.56741 -12.803212 12.01556 23
51.132217 -12.936753 8.3293352 3
44.428616 -3.0879831 8.6420822 30
52.37344 -13.250836 4.7234054 28
46.742287 -3.3059037 5.7410135 80
22.823879 -5.7778864 0.41034967 5
45.488178 -3.2572005 2.3882205 16
11.628758 -2.9451668 -0.62894315 5
15.771489 -1.1350615 -0.2754012 5
7.7717147 -1.9706328 -0.978742 5
9.4865828 -0.68290174 -0.82741636 5
5.8573756 -1.4858902 -1.1656548 5
6.7926207 -0.48671818 -1.0743239 5
4.7031889 -1.1953728 -1.2900196 21
5.3637333 -0.37875956 -1.2314302 5
50.538078 -16.92499 11.311495 25
38.53616 -5.575839 9.68507 30
64.527069 -21.561018 9.5566673 79
40.241257 -5.8511252 7.156764 16
58.509884 -19.527349 4.3000159 38
63.908436 -9.336689 6.7846813 51
18.619705 -6.2076445 0 6
10.302193 -3.4386938 -0.75514418 6
13.662612 -2.0049615 -0.48340824 4
7.1282177 -2.3848252 -1.0488422 5
8.6519899 -1.2704241 -0.91236889 6
5.4341617 -1.8243635 -1.2120807 6
6.3484826 -0.9316166 -1.125241 5
4.3981228 -1.4841883 -1.3201886 20
5.0774398 -0.74371988 -1.2698059 5
50.465881 -12.974513 12.002645 23
51.055756 -13.116701 8.3246527 3
45.075405 -3.2989209 8.7702856 30
52.428242 -13.469356 4.7327747 1
46.818947 -3.4838209 5.7519665 1
22.855806 -5.875196 0.41130957 5
45.246895 -3.4066794 2.3761833 23
11.622722 -2.989013 -0.6292057 5
15.772209 -1.1932349 -0.27548847 5
7.7692461 -2.0003428 -0.97935051 5
9.4864988 -0.71785384 -0.8276338 5
5.8709025 -1.5122513 -1.1694641 5
6.7883286 -0.51142722 -1.0739324 5
4.7034521 -1.2138115 -1.2913129 21
5.359879 -0.39823762 -1.2308686 5
50.538078 -16.92499 11.311495 25
38.53616 -5.575839 9.68507 30
64.527069 -21.561018 9.5566673 79
40.241257 -5.8511252 7.156764 16
58.509884 -19.527349 4.3000159 38
63.908436 -9.336689 6.7846813 51
18.619705 -6.2076445 0 6
10.301593 -3.4404917 -0.75514418 6
13.662612 -2.0049615 -0.48340824 4
7.1282177 -2.3848252 -1.0488422 5
8.651989 -1.2704302 -0.91236889 6
5.4341617 -1.8243635 -1.2120807 6
6.34832 -0.9327246 -1.125241 5
4.3981228 -1.4841883 -1.3201886 20
5.0773096 -0.74460614 -1.2698059 5
50.465881 -12.974513 12.002645 23
51.055756 -13.116701 8.3246527 3
45.074833 -3.306788 8.7702856 30
56.386555 -14.486414 5.0903311 1
46.818336 -3.4919925 5.7519665 1
22.855806 -5.875196 0.41130957 5
45.2463 -3.4145763 2.3761833 23
11.622722 -2.989013 -0.6292057 5
15.772 -1.1959878 -0.27548847 5
7.7692461 -2.0003428 -0.97935051 5
9.4863739 -0.71950954 -0.8276338 5
5.8706379 -1.5132759 -1.1694641 5
6.7882395 -0.5126121 -1.0739324 5
4.7032404 -1.2146324 -1.2913129 21
5.359879 -0.39823762 -1.2308686 5
50.541225 -17.12249 11.325518 20
38.61245 -5.7245479 9.7092276 26
64.735191 -21.882074 9.5987682 79
39.9795 -5.9556561 7.1138291 16
58.483902 -19.745832 4.3031473 39
63.713161 -9.53543 6.7674341 1
18.619244 -6.2797966 0 5
10.29897 -3.4796267 -0.75584 6
13.653059 -2.0522695 -0.48332056 4
7.11516 -2.408103 -1.048148 5
8.6499605 -1.3009926 -0.91262943 6
5.4323902 -1.8448973 -1.2131212 6
6.3425903 -0.95451313 -1.1248069 5
4.404283 -1.5034236 -1.323632 20
5.0866752 -0.76412165 -1.2728277 5
50.408497 -13.147517 11.999838 24
51.002491 -13.292969 8.3234816 3
44.874599 -3.4496436 8.7335882 36
56.133209 -14.630383 5.0720286 6
46.803383 -3.6552043 5.7516623 1
22.791624 -5.9435849 0.41052419 5
45.02504 -3.5560043 2.3651924 25
11.621879 -3.0320878 -0.62973082 5
15.765238 -1.2508382 -0.27544481 6
7.764617 -2.0280781 -0.97965485 6
9.4788389 -0.75222719 -0.82719892 5
5.8653202 -1.5337589 -1.1694641 5
6.7888703 -0.53649712 -1.0743239 6
4.7013078 -1.2316551 -1.2919595 19
5.3706007 -0.41787913 -1.2336762 4
50.541225 -17.12249 11.325518 20
38.61245 -5.7245479 9.7092276 26
64.735191 -21.882074 9.5987682 79
39.9795 -5.9556561 7.1138291 16
58.483902 -19.745832 4.3031473 39
63.713161 -9.53543 6.7674341 1
18.619244 -6.2797966 0 5
10.299577 -3.4778292 -0.75584 6
13.653059 -2.0522695 -0.48332056 4
7.11516 -2.408103 -1.048148 5
8.6499615 -1.3009866 -0.91262943 6
5.4323902 -1.8448973 -1.2131212 6
6.3427572 -0.9534061 -1.1248069 5
4.404283 -1.5034236 -1.323632 20
5.0868082 -0.76323384 -1.2728277 5
50.408497 -13.147517 11.999838 24
51.002491 -13.292969 8.3234816 3
44.875202 -3.4418113 8.7335882 36
56.133209 -14.630383 5.0720286 6
46.80402 -3.6470354 5.7516623 1
22.791624 -5.9435849 0.41052419 5
45.025661 -3.5481458 2.3651924 25
11.621879 -3.0320878 -0.62973082 5
15.765455 -1.2480865 -0.27544481 6
7.764617 -2.0280781 -0.97965485 6
9.4789705 -0.7505728 -0.82719892 5
5.8655877 -1.5327352 -1.1694641 5
6.7889638 -0.53531224 -1.0743239 6
4.7015228 -1.2308346 -1.2919595 19
5.3706007 -0.41787913 -1.2336762 4
50.544319 -17.310602 11.339021 22
38.670013 -5.8641953 9.7285547 34
64.943382 -22.192699 9.6405191 77
39.806183 -6.0648446 7.0865064 31
58.349655 -19.9163 4.2981029 26
63.052021 -9.650383 6.7005358 13
18.640905 -6.3560376 0 6
10.311587 -3.5200305 -0.75757951 6
13.663465 -2.100188 -0.48393437 4
7.109478 -2.432487 -1.0484952 5
8.6578875 -1.3315508 -0.91393167 5
5.4262424 -1.8629016 -1.2131212 8
6.3468609 -0.97555399 -1.1261092 5
4.4015446 -1.5188065 -1.3243207 20
5.0746574 -0.77863044 -1.2704103 5
50.270412 -13.289697 11.977376 23
50.943802 -13.458241 8.3211403 4
44.927147 -3.5956881 8.7459793 29
55.812294 -14.744557 5.0474072 1
69.404922 -5.6375322 8.53333 1
22.909531 -6.0555515 0.41301116 5
44.856892 -3.6845765 2.3569498 28
11.63831 -3.077635 -0.63117486 4
15.766213 -1.3007693 -0.27553207 5
7.7698417 -2.0569928 -0.98117602 5
9.4838753 -0.78261298 -0.8278513 5
5.8628454 -1.552807 -1.1699402 5
6.7969952 -0.55862474 -1.0758899 5
4.7044172 -1.2482791 -1.2938995 20
5.3594728 -0.43490663 -1.2314302 5
50.544319 -17.310602 11.339021 22
38.670013 -5.8641953 9.7285547 34
64.943382 -22.192699 9.6405191 77
39.806183 -6.0648446 7.0865064 31
65.819641 -22.466564 4.8486729 1
63.053703 -9.6393776 6.7005358 13
18.640905 -6.3560376 0 6
10.311587 -3.5200305 -0.75757951 6
13.663465 -2.100188 -0.48393437 4
7.1099024 -2.4312463 -1.0484952 5
8.6578875 -1.3315508 -0.91393167 5
5.4265676 -1.8619545 -1.2131212 8
6.3468609 -0.97555399 -1.1261092 5
4.4018092 -1.5180383 -1.3243207 20
5.0746574 -0.77863044 -1.2704103 5
50.272728 -13.280923 11.977376 23
50.946156 -13.44935 8.3211403 4
44.927147 -3.5956881 8.7459793 29
55.814865 -14.734817 5.0474072 1
69.404922 -5.6375322 8.53333 1
22.910587 -6.0515528 0.41301116 5
44.856892 -3.6845765 2.3569498 28
11.638847 -3.0756037 -0.63117486 4
15.766438 -1.2980236 -0.27553207 5
7.7702007 -2.0556366 -0.98117602 5
9.4840126 -0.7809577 -0.8278513 5
5.8628454 -1.552807 -1.1699402 5
6.7970924 -0.55743843 -1.0758899 5
4.7046347 -1.247458 -1.2938995 20
5.3595486 -0.4339712 -1.2314302 5
50.53904 -17.506144 11.351485 22
38.766769 -6.0173688 9.7581482 34
65.139275 -22.513899 9.6812277 55
39.256874 -6.1214676 6.9923954 31
58.310421 -20.130436 4.300364 3
41.282665 -6.4593797 4.3881049 26
18.625694 -6.4235144 0 6
10.294521 -3.5543735 -0.75723159 6
13.660987 -2.1486454 -0.48410973 5
7.1154084 -2.4609127 -1.0505775 5
8.6507301 -1.3613783 -0.91367114 5
5.4177251 -1.8800818 -1.2126009 8
6.3434167 -0.99770266 -1.1261092 6
4.3896785 -1.5310135 -1.3222545 19
5.0814948 -0.79784071 -1.2728277 5
50.310772 -13.479026 11.997591 23
50.884586 -13.623272 8.318799 4
45.085518 -3.7667761 8.7793407 30
55.54417 -14.870938 5.0275788 1
68.994156 -5.8466868 8.485261 13
22.845865 -6.119844 0.41222581 5
44.674606 -3.8266625 2.3480525 16
11.618394 -3.1136258 -0.63064975 4
15.75932 -1.3528378 -0.27548847 6
7.7653742 -2.0833907 -0.98148018 5
9.4688206 -0.81299907 -0.82676405 5
5.8668694 -1.5758116 -1.1718448 5
6.7901845 -0.58074379 -1.075107 5
4.7002516 -1.2638725 -1.2938995 20
5.3652835 -0.45328587 -1.2331147 5
50.53904 -17.506144 11.351485 22
38.766769 -6.0173688 9.7581482 34
65.139275 -22.513899 9.6812277 55
39.256874 -6.1214676 6.9923954 31
65.757317 -22.701878 4.8498907 1
62.890217 -9.8504143 6.6869473 24
18.625694 -6.4235144 0 6
10.2939 -3.5561702 -0.75723159 6
13.660987 -2.1486454 -0.48410973 5
7.1149788 -2.4621546 -1.0505775 5
8.6507292 -1.3613843 -0.91367114 5
5.417397 -1.8810275 -1.2126009 8
6.3432426 -0.99880981 -1.1261092 6
4.389411 -1.5317796 -1.3222545 19
5.081356 -0.79872763 -1.2728277 5
50.308422 -13.487806 11.997591 23
55.44751 -14.855422 9.0656881 1
45.084854 -3.7746453 8.7793407 30
55.541573 -14.880633 5.0275788 1
68.993134 -5.8587289 8.485261 13
22.844797 -6.1238317 0.41222581 5
44.673939 -3.8344595 2.3480525 16
11.61785 -3.1156533 -0.63064975 4
15.758849 -1.3583328 -0.27548847 6
7.7650108 -2.0847459 -0.98148018 5
9.4685373 -0.81630427 -0.82676405 5
5.8665943 -1.5768355 -1.1718448 5
6.7899814 -0.58311397 -1.075107 5
4.6998105 -1.2655132 -1.2938995 20
5.3652048 -0.45422226 -1.2331147 5
50.566849 -17.723623 11.37226 20
38.825912 -6.1723619 9.7786837 30
65.322716 -22.845682 9.720892 41
38.667683 -6.1748772 6.8913455 34
65.885559 -23.016777 4.8655467 9
41.326294 -6.6288681 4.395422 72
18.642151 -6.5057497 0 6
10.301984 -3.6012902 -0.75879723 6
13.67522 -2.2022727 -0.4848989 5
7.110579 -2.4898551 -1.0512717 5
8.6481371 -1.3934768 -0.91393167 6
5.4150791 -1.9024951 -1.2136414 10
6.3492622 -1.0236167 -1.1278458 5
4.3837676 -1.5478574 -1.3222545 20
5.0759993 -0.81696182 -1.2722234 5
50.228096 -13.663791 11.990292 22
50.839046 -13.820497 8.3199701 4
45.283428 -3.958436 8.8208046 28
55.25835 -15.02203 5.0068793 1
68.694359 -6.087049 8.4511862 13
22.870438 -6.220645 0.41309845 5
44.4706 -3.9812725 2.3381088 20
11.628032 -3.1641164 -0.63183123 4
15.761232 -1.416752 -0.27561936 6
7.7644997 -2.1151502 -0.98239297 6
9.4679623 -0.85122448 -0.82698143 5
5.8584085 -1.5976809 -1.1713687 5
6.7853394 -0.60777795 -1.0747154 5
4.7021279 -1.2846421 -1.2958393 20
5.3586497 -0.47345904 -1.2319915 4
50.566849 -17.723623 11.37226 20
38.825912 -6.1723619 9.7786837 30
65.322716 -22.845682 9.720892 41
38.667683 -6.1748772 6.8913455 34
65.885559 -23.016777 4.8655467 9
41.326294 -6.6288681 4.395422 72
18.642151 -6.5057497 0 6
10.301984 -3.6012902 -0.75879723 6
13.67522 -2.2022727 -0.4848989 5
7.110579 -2.4898551 -1.0512717 5
8.6481371 -1.3934768 -0.91393167 6
5.4150791 -1.9024951 -1.2136414 10
6.3492622 -1.0236167 -1.1278458 5
4.3837676 -1.5478574 -1.3222545 20
5.0759993 -0.81696182 -1.2722234 5
50.228096 -13.663791 11.990292 22
55.235416 -15.015789 9.0399332 1
45.283428 -3.958436 8.8208046 28
55.25835 -15.02203 5.0068793 1
68.694359 -6.087049 8.4511862 13
22.870438 -6.220645 0.41309845 5
44.4706 -3.9812725 2.3381088 20
11.628032 -3.1641164 -0.63183123 4
15.761232 -1.416752 -0.27561936 6
7.7644997 -2.1151502 -0.98239297 6
9.4679623 -0.85122448 -0.82698143 5
5.8584085 -1.5976809 -1.1713687 5
6.7853394 -0.60777795 -1.0747154 5
4.7021279 -1.2846421 -1.2958393 20
5.3586497 -0.47345904 -1.2319915 4
50.551594 -17.906731 11.382127 24
38.790863 -6.2987471 9.7750587 30
65.554703 -23.171097 9.766819 38
38.571659 -6.2907877 6.8779011 43
64.534294 -22.785034 4.7712626 16
41.362976 -6.7755184 4.4016938 79
18.625189 -6.5691977 0 6
10.285282 -3.6337698 -0.75844932 6
13.667843 -2.2476091 -0.4848989 4
7.1139512 -2.5175571 -1.053007 5
8.6483755 -1.4229535 -0.91445261 6
5.4018288 -1.9179819 -1.2120807 12
6.3409743 -1.0438675 -1.1269776 5
4.3808732 -1.5631957 -1.3229432 20
5.0756559 -0.83418232 -1.2728277 5
50.189552 -13.83222 11.991977 25
50.800079 -13.990975 8.3211403 6
45.240715 -4.1059203 8.8150854 28
55.061768 -15.164846 4.9935884 2
68.377281 -6.2875686 8.4146767 18
22.895468 -6.3090715 0.41392741 4
44.265739 -4.1109633 2.3280339 23
11.62229 -3.2039866 -0.63209379 4
15.768892 -1.4701669 -0.27583751 5
7.7550516 -2.1402261 -0.98208869 5
9.465086 -0.8826167 -0.82698143 5
5.855443 -1.6177533 -1.1718448 5
6.7832861 -0.63027567 -1.0747154 5
4.6931887 -1.298938 -1.2945461 20
5.349772 -0.49056527 -1.2303071 4
50.551594 -17.906731 11.382127 24
38.790863 -6.2987471 9.7750587 30
65.554703 -23.171097 9.766819 38
38.571659 -6.2907877 6.8779011 43
64.534294 -22.785034 4.7712626 16
41.364159 -6.7682991 4.4016938 79
18.625189 -6.5691977 0 6
10.285915 -3.6319745 -0.75844932 6
13.667843 -2.2476091 -0.4848989 4
7.1143904 -2.5163155 -1.053007 5
8.6483774 -1.4229475 -0.91445261 6
5.402164 -1.9170392 -1.2120807 12
6.3411555 -1.0427607 -1.1269776 5
4.3811455 -1.5624311 -1.3229432 20
5.0758018 -0.83329648 -1.2728277 5
50.191963 -13.823461 11.991977 25
55.104645 -15.166305 9.0262756 1
45.241436 -4.0980244 8.8150854 28
55.064415 -15.155236 4.9935884 2
68.378372 -6.2756343 8.4146767 18
22.89657 -6.3050752 0.41392741 4
44.266457 -4.1032376 2.3280339 23
11.622849 -3.2019579 -0.63209379 4
15.769404 -1.4646684 -0.27583751 5
7.755425 -2.1388726 -0.98208869 5
9.465394 -0.87931269 -0.82698143 5
5.8557258 -1.6167314 -1.1718448 5
6.7835059 -0.62790775 -1.0747154 5
4.6936417 -1.2972996 -1.2945461 20
5.3498578 -0.48963156 -1.2303071 4
50.557846 -18.107821 11.397708 20
38.773426 -6.4349084 9.7762671 30
65.781143 -23.509783 9.812747 43
38.573753 -6.4294362 6.8822384 39
66.394394 -23.702885 4.9149504 16
41.590412 -6.9544578 4.4283481 63
18.637463 -6.6467752 0 6
10.28257 -3.6712151 -0.75914514 6
13.672234 -2.2973735 -0.48533732 4
7.1102242 -2.5428038 -1.0537012 5
8.650713 -1.4543623 -0.91523391 6
5.3931389 -1.935057 -1.2115606 15
6.3471904 -1.0665182 -1.1287141 5
4.3824458 -1.5801665 -1.3250093 19
5.0776472 -0.85181004 -1.2740365 5
50.054237 -13.973685 11.970638 24
50.741516 -14.156041 8.31919 6
45.263508 -4.259367 8.8222342 9
54.965603 -15.334639 4.9894481 2
68.099152 -6.4898152 8.3830366 26
22.958687 -6.4084888 0.41545454 4
44.107723 -4.2438774 2.3204453 25
11.642859 -3.2512431 -0.63380039 4
15.759218 -1.5192267 -0.27575022 5
7.7550797 -2.1679363 -0.98300135 6
9.4672251 -0.91282338 -0.82741636 5
5.8524098 -1.6378238 -1.1723211 5
6.7886472 -0.65228635 -1.0758899 5
4.6960592 -1.3156323 -1.2964859 20
5.355392 -0.50898826 -1.2319915 4
50.557846 -18.107821 11.397708 20
38.773426 -6.4349084 9.7762671 30
65.781143 -23.509783 9.812747 43
38.573753 -6.4294362 6.8822384 39
66.394394 -23.702885 4.9149504 16
41.589195 -6.9617167 4.4283481 63
18.637463 -6.6467752 0 6
10.28257 -3.6712151 -0.75914514 6
13.672234 -2.2973735 -0.48533732 4
7.1097808 -2.5440447 -1.0537012 5
8.650713 -1.4543623 -0.91523391 6
5.3928008 -1.9359983 -1.2115606 15
6.3471904 -1.0665182 -1.1287141 5
4.3821702 -1.5809313 -1.3250093 19
5.0776472 -0.85181004 -1.2740365 5
50.051804 -13.98242 11.970638 24
50.739044 -14.164897 8.31919 6
45.263508 -4.259367 8.8222342 9
