# .PCD v0.7 - Point Cloud Data file format
VERSION 0.7
FIELDS x y z intensity
SIZE 4 4 4 4
TYPE F F F F
COUNT 1 1 1 1
WIDTH 1547
HEIGHT 1
VIEWPOINT 0 0 0 1 0 0 0
POINTS 1547
DATA ascii
5.0819569 -6.2361832 -1.846303 5
6.4480834 -13.887572 3.2443943 1
13.397247 -19.009489 5.7810855 26
15.602366 -33.556503 5.1960273 26
14.909552 -21.186268 4.5572219 22
16.641253 -35.758911 2.7486773 23
21.381495 -30.426338 3.904922 1
30.738947 -66.030411 0 1
37.655403 -53.621532 2.2868767 1
nan nan nan 0
22.764816 -32.430679 -1.3893713 79
5.3649907 -11.558552 -1.7815046 4
11.621687 -16.557962 -2.1154041 5
3.4721191 -7.500896 -1.7510146 5
6.1211557 -8.7195663 -1.8723629 4
2.5741606 -5.5838704 -1.7519873 6
4.2197404 -6.00769 -1.8203975 5
15.853697 -28.609201 7.5312037 37
15.860278 -19.364122 6.6882181 4
14.039603 -25.324741 4.5703058 8
12.1759 -14.920447 3.7331622 28
18.374649 -33.145382 3.312572 1
17.734715 -21.783148 3.4397404 1
34.985882 -63.138824 1.2593656 1
40.849934 -50.255096 3.3922856 1
23.563017 -42.540462 -2.5552866 3
21.631477 -26.624716 -0.59818602 31
7.3775377 -13.327992 -1.8634738 4
12.822415 -15.779561 -1.7722585 55
4.4815259 -8.0981598 -1.7889563 5
7.8034129 -9.5956554 -1.9556298 7
3.2053521 -5.7982774 -1.7646434 5
5.0819569 -6.2361832 -1.846303 5
6.5513263 -14.246645 3.3228166 15
13.299674 -19.018703 5.7690063 30
15.43786 -33.523514 5.1821103 18
14.89524 -21.331608 4.5767384 12
16.622801 -36.064289 2.7674646 26
17.269258 -24.767681 3.1698256 32
30.360662 -65.847488 0 23
nan nan nan 0
nan nan nan 0
22.957115 -32.960823 -1.4084866 80
5.3225908 -11.578137 -1.7815046 5
11.560922 -16.600447 -2.1154041 4
3.44155 -7.5069013 -1.749454 5
6.076488 -8.7237635 -1.8684559 4
2.5506873 -5.5867071 -1.7499214 6
4.1949177 -6.0191364 -1.8191887 5
15.756945 -28.682066 7.5351348 37
14.775899 -18.176147 6.258492 25
13.996638 -25.466925 4.5866952 6
12.124223 -14.968786 3.7341151 27
16.952871 -30.846529 3.07638 62
13.162174 -16.290218 2.5635283 6
nan nan nan 0
nan nan nan 0
nan nan nan 0
21.747173 -26.96842 -0.6041199 31
7.3083487 -13.31796 -1.8583016 4
12.775443 -15.840021 -1.7737807 37
4.447094 -8.1059237 -1.7870516 5
7.7588806 -9.6126661 -1.9532806 6
3.1817586 -5.8057504 -1.7633501 5
5.0559993 -6.2509804 -1.8451799 5
6.5513263 -14.246645 3.3228166 15
13.299674 -19.018703 5.7690063 30
17.214411 -37.382465 5.7791624 1
14.89524 -21.331608 4.5767384 12
16.622801 -36.064289 2.7674646 26
18.345842 -26.311502 3.3676457 1
30.360662 -65.847488 0 23
21.077492 -30.251177 1.2863081 1
nan nan nan 0
22.957115 -32.960823 -1.4084866 80
5.3225908 -11.578137 -1.7815046 5
11.560917 -16.600451 -2.1154041 4
3.44155 -7.5069013 -1.749454 5
6.0749655 -8.724824 -1.8684559 4
2.5506873 -5.5867071 -1.7499214 6
4.1938667 -6.0198689 -1.8191887 5
15.717065 -28.609465 7.5160422 1
14.772726 -18.178726 6.258492 25
13.996638 -25.466925 4.5866952 6
12.121611 -14.970902 3.7341151 27
16.952871 -30.846529 3.07638 62
16.846193 -20.855171 3.2827523 7
35.070732 -63.842819 1.2708405 1
40.603374 -50.345512 3.3878372 1
23.761406 -43.272106 -2.594013 1
21.742466 -26.972214 -0.6041199 31
7.3083487 -13.31796 -1.8583016 4
12.772677 -15.842251 -1.7737807 37
4.4456792 -8.1066999 -1.7870516 5
7.7572026 -9.6140203 -1.9532806 6
3.1807451 -5.8063054 -1.7633501 5
5.0559993 -6.2509804 -1.8451799 5
6.4934497 -14.251622 3.3186617 15
13.269176 -19.116827 5.7847095 18
15.3752 -33.696571 5.2005506 6
14.834714 -21.403704 4.5810752 8
16.582783 -36.310394 2.781903 9
18.255302 -26.377428 3.3679068 39
30.095312 -65.875748 0 28
nan nan nan 0
nan nan nan 0
22.841919 -33.04076 -1.4084866 1
5.2749643 -11.580873 -1.7790751 4
11.449165 -16.562986 -2.1055069 4
3.4122941 -7.512188 -1.7478932 5
6.0472727 -8.7500257 -1.869324 4
2.5331485 -5.599957 -1.7512988 6
4.1673064 -6.0264916 -1.8167713 5
15.649737 -28.724056 7.531765 53
14.695527 -18.213264 6.252676 26
13.923019 -25.543812 4.5917683 7
12.118498 -15.074317 3.749366 24
16.924946 -31.052032 3.0909784 36
13.51233 -16.849321 2.6438479 7
nan nan nan 0
nan nan nan 0
nan nan nan 0
21.762226 -27.190395 -0.60730505 31
7.2523279 -13.325952 -1.8558677 4
12.764005 -15.945056 -1.7803042 22
4.416183 -8.1200123 -1.7865754 5
7.6911621 -9.600584 -1.9450588 5
3.155849 -5.8088846 -1.7607638 5
5.0249901 -6.2572002 -1.8418106 5
6.4934497 -14.251622 3.3186617 15
13.269176 -19.116827 5.7847095 18
16.99032 -37.237354 5.7475009 9
16.588064 -23.933033 5.1231885 5
16.582783 -36.310394 2.781903 9
18.255302 -26.377428 3.3679068 39
30.095312 -65.875748 0 28
20.805479 -30.08415 1.2761 1
nan nan nan 0
22.841919 -33.04076 -1.4084866 1
5.2749643 -11.580873 -1.7790751 4
11.44917 -16.562984 -2.1055069 4
3.4122941 -7.512188 -1.7478932 5
6.0487995 -8.748971 -1.869324 4
2.5331485 -5.599957 -1.7512988 6
4.1683583 -6.0257645 -1.8167713 5
15.649737 -28.724056 7.531765 53
14.698706 -18.210701 6.252676 26
13.923019 -25.543812 4.5917683 7
12.121127 -15.072202 3.749366 24
16.924946 -31.052032 3.0909784 36
17.000603 -21.189594 3.3265629 6
35.109547 -64.445572 1.2803957 1
40.497074 -50.555862 3.39294 1
nan nan nan 0
21.766972 -27.186596 -0.60730505 31
7.2523279 -13.325952 -1.8558677 4
12.766787 -15.942828 -1.7803042 22
4.4175997 -8.1192417 -1.7865754 5
7.6928382 -9.5992403 -1.9450588 5
3.1568627 -5.8083334 -1.7607638 5
5.0249901 -6.2572002 -1.8418106 5
6.4823685 -14.35332 3.3373587 20
13.233246 -19.200668 5.7967882 3
15.274594 -33.772186 5.2043777 3
14.763655 -21.452782 4.5810752 10
16.636061 -36.749165 2.8113015 25
17.9748 -26.157103 3.3321059 38
nan nan nan 0
nan nan nan 0
nan nan nan 0
22.013882 -32.069954 -1.3639426 61
5.2324591 -11.589274 -1.7776868 5
11.366038 -16.559864 -2.1002977 5
3.3883674 -7.5256929 -1.7484136 5
6.0169668 -8.7649231 -1.8684559 4
2.5106378 -5.5995522 -1.748544 6
4.1497273 -6.041553 -1.8173757 5
15.518491 -28.709356 7.5143576 62
14.659391 -18.285721 6.261723 23
13.981524 -25.854847 4.6393752 4
12.075676 -15.118065 3.7507958 15
16.936779 -31.320492 3.1121137 24
nan nan nan 0
nan nan nan 0
nan nan nan 0
nan nan nan 0
21.810516 -27.426863 -0.61105734 30
7.1939535 -13.323725 -1.8522168 4
12.689037 -15.953896 -1.7768251 23
4.3848238 -8.1230469 -1.7841945 5
7.65481 -9.6169729 -1.9434927 5
3.13873 -5.8208957 -1.7614104 5
5.0011716 -6.2700219 -1.8406875 4
6.4823685 -14.35332 3.3373587 20
17.607544 -25.54631 7.7155628 1
16.894281 -37.354397 5.7568946 6
14.763655 -21.452782 4.5810752 10
16.636061 -36.749165 2.8113015 25
17.979362 -26.153965 3.3321059 38
29.824104 -65.859039 0 1
20.879578 -30.406303 1.2868316 1
nan nan nan 0
22.013882 -32.069954 -1.3639426 61
5.2344818 -11.58836 -1.7776868 5
11.366038 -16.559864 -2.1002977 5
3.3896809 -7.5251017 -1.7484136 5
6.0169668 -8.7649231 -1.8684559 4
2.511615 -5.5991144 -1.748544 6
4.1497273 -6.041553 -1.8173757 5
15.523501 -28.70665 7.5143576 62
14.659391 -18.285721 6.261723 23
13.986036 -25.852406 4.6393752 4
12.075676 -15.118065 3.7507958 15
16.942245 -31.317533 3.1121137 24
16.927149 -21.241974 3.3259547 20
35.270702 -65.228371 1.2937468 1
40.366512 -50.736771 3.39608 1
nan nan nan 0
21.815298 -27.423059 -0.61105734 30
7.1962786 -13.322469 -1.8522168 4
12.691821 -15.95168 -1.7768251 23
4.3848238 -8.1230469 -1.7841945 5
7.6564879 -9.6156378 -1.9434927 5
3.1397455 -5.8203478 -1.7614104 5
5.0022659 -6.2691488 -1.8406875 4
6.3843136 -14.268701 3.3124297 26
17.547029 -25.649662 7.7282462 3
15.167747 -33.850159 5.2082052 2
14.728958 -21.563143 4.5936522 7
16.551558 -36.904865 2.8187816 30
17.873945 -26.19603 3.3294928 35
22.40185 -49.929485 0 25
nan nan nan 0
nan nan nan 0
nan nan nan 0
5.1869254 -11.59074 -1.7752573 5
11.268962 -16.541904 -2.0930052 4
3.3574202 -7.5234861 -1.7452923 5
5.9904947 -8.791975 -1.8697582 4
2.4920552 -5.6078472 -1.748544 6
4.1217785 -6.0459814 -1.8143537 5
15.342618 -28.610374 7.4750509 66
14.843695 -18.648504 6.3683467 23
13.96808 -26.035982 4.663569 7
12.694005 -16.006027 3.9604974 31
nan nan nan 0
12.867454 -16.265335 2.5385807 19
nan nan nan 0
16.517611 -20.914734 1.3948841 2
nan nan nan 0
21.758181 -27.548077 -0.61214811 28
7.1345024 -13.31907 -1.8482618 4
12.648417 -16.011518 -1.7785647 41
4.3541274 -8.133976 -1.7832423 5
7.5937686 -9.6055136 -1.9360539 4
3.1159942 -5.8248835 -1.7594705 5
4.9697556 -6.2732115 -1.8367568 5
6.3843136 -14.268701 3.3124297 26
17.547029 -25.649662 7.7282462 3
16.772896 -37.433479 5.7600265 18
14.728958 -21.563143 4.5936522 7
16.551558 -36.904865 2.8187816 30
17.869375 -26.199146 3.3294928 35
29.612448 -66.003799 0 1
20.615704 -30.247782 1.2770598 1
nan nan nan 0
nan nan nan 0
5.1849027 -11.591646 -1.7752573 5
11.268962 -16.541904 -2.0930052 4
3.3561072 -7.5240722 -1.7452923 5
5.9904947 -8.791975 -1.8697582 4
2.4910765 -5.6082816 -1.748544 6
4.1217785 -6.0459814 -1.8143537 5
15.337625 -28.61305 7.4750509 66
14.843695 -18.648504 6.3683467 23
13.963535 -26.038422 4.663569 7
12.694005 -16.006027 3.9604974 31
16.928558 -31.568176 3.1308522 24
16.450964 -20.793089 3.2465479 2
35.299446 -65.85733 1.3036511 1
40.187614 -50.875401 3.3959491 1
nan nan nan 0
21.753378 -27.55187 -0.61214811 28
7.1321774 -13.320315 -1.8482618 4
12.645622 -16.013725 -1.7785647 41
4.3541274 -8.133976 -1.7832423 5
7.5920916 -9.6068382 -1.9360539 4
3.1149774 -5.8254266 -1.7594705 5
4.9686604 -6.2740788 -1.8367568 5
6.3324876 -14.286428 3.3113909 19
13.858006 -20.410448 6.133193 8
nan nan nan 0
14.643927 -21.600161 4.5906162 6
16.41251 -36.939625 2.8170421 27
17.855873 -26.376657 3.3441267 39
22.227427 -50.007381 0 27
17.956354 -26.545012 1.117918 2
nan nan nan 0
23.183508 -34.284184 -1.451277 41
5.1363902 -11.591564 -1.7724808 4
11.172151 -16.523472 -2.0857124 4
3.3308098 -7.5379786 -1.7458124 5
5.9473519 -8.7944784 -1.865851 4
2.4676189 -5.6081414 -1.7457894 6
4.097929 -6.0563149 -1.813145 5
15.188491 -28.573915 7.4509053 39
14.89983 -18.853659 6.4206896 17
13.696346 -25.755598 4.6042552 6
12.253831 -15.562502 3.8399191 25
16.912968 -31.805191 3.1485012 32
13.1065 -16.686718 2.5972991 20
nan nan nan 0
16.432178 -20.956551 1.3938373 2
nan nan nan 0
16.348284 -20.857092 -0.46196893 39
7.0740032 -13.323211 -1.8452193 4
12.61424 -16.089123 -1.7820439 24
4.3234072 -8.1447887 -1.78229 5
7.543262 -9.613862 -1.9321387 4
3.0889702 -5.8255959 -1.7562374 5
4.9542632 -6.3009553 -1.8395644 5
6.3324876 -14.286428 3.3113909 19
17.971195 -26.467369 7.9559379 1
nan nan nan 0
16.324156 -24.078123 5.1179843 4
16.41251 -36.939625 2.8170421 27
17.855873 -26.376657 3.3441267 39
29.399132 -66.145599 0 3
20.400793 -30.158148 1.2702544 30
nan nan nan 0
23.183508 -34.284184 -1.451277 41
5.1363902 -11.591564 -1.7724808 4
11.172151 -16.523472 -2.0857124 4
3.3308098 -7.5379786 -1.7458124 5
5.9473519 -8.7944784 -1.865851 4
2.4676189 -5.6081414 -1.7457894 6
4.097929 -6.0563149 -1.813145 5
15.188491 -28.573915 7.4509053 39
14.89983 -18.853659 6.4206896 17
13.696346 -25.755598 4.6042552 6
12.253831 -15.562502 3.8399191 25
16.912968 -31.805191 3.1485012 32
16.569927 -21.094278 3.2845778 1
35.211288 -66.247223 1.3089304 1
16.15329 -20.601 1.3701553 1
19.960218 -37.567871 -2.2351046 1
16.348284 -20.857092 -0.46196893 39
7.0740032 -13.323211 -1.8452193 4
12.61424 -16.089123 -1.7820439 24
4.3234072 -8.1447887 -1.78229 5
7.543262 -9.613862 -1.9321387 4
3.0889702 -5.8255959 -1.7562374 5
4.9542632 -6.3009553 -1.8395644 5
6.2918677 -14.336416 3.3176231 16
nan nan nan 0
16.240694 -36.951912 5.6678238 23
14.779048 -21.972372 4.6582718 4
15.867366 -36.068104 2.746068 38
17.736895 -26.408901 3.3399458 26
22.030901 -50.058762 0 16
17.779573 -26.492401 1.1129448 59
nan nan nan 0
23.189943 -34.566025 -1.459607 36
5.0869131 -11.59444 -1.7700515 5
11.103203 -16.551918 -2.0841496 4
3.2992435 -7.541173 -1.7437317 5
5.9068456 -8.8039532 -1.8632463 4
2.4460893 -5.6149445 -1.7451007 5
4.0716453 -6.0652523 -1.8113319 5
15.116587 -28.691895 7.4671893 38
14.773975 -18.835943 6.3961334 15
13.611067 -25.823099 4.6073771 7
12.861814 -16.457994 4.0496206 25
15.483027 -29.375105 2.9020684 2
13.098663 -16.803127 2.6079476 6
nan nan nan 0
16.342987 -21.000875 1.3927906 30
nan nan nan 0
16.27173 -20.91687 -0.46196893 34
7.0124145 -13.324895 -1.8418727 4
12.685226 -16.302292 -1.8005276 24
4.2855291 -8.1453753 -1.7789568 5
7.4806542 -9.6063881 -1.9250913 5
3.070966 -5.8432922 -1.7581772 5
4.9206376 -6.3056331 -1.8356338 5
6.2918677 -14.336416 3.3176231 16
nan nan nan 0
16.240694 -36.951912 5.6678238 23
14.779048 -21.972372 4.6582718 4
15.867366 -36.068104 2.746068 38
17.736895 -26.408901 3.3399458 26
29.093065 -66.108749 0 1
17.779573 -26.492401 1.1129448 59
nan nan nan 0
23.189943 -34.566025 -1.459607 36
5.0869131 -11.59444 -1.7700515 5
11.103197 -16.551922 -2.0841496 4
3.2992435 -7.541173 -1.7437317 5
5.9053092 -8.8049831 -1.8632463 4
2.4460893 -5.6149445 -1.7451007 5
4.0705867 -6.0659633 -1.8113319 5
15.116587 -28.691895 7.4671893 38
14.77069 -18.838524 6.3961334 15
13.611067 -25.823099 4.6073771 7
12.858942 -16.460238 4.0496206 25
16.919363 -32.10051 3.1715975 24
16.414053 -21.061853 3.2696702 13
34.950771 -66.342659 1.3082759 1
16.339321 -21.003727 1.3927906 30
19.977097 -37.934574 -2.2525644 1
16.26808 -20.91971 -0.46196893 34
7.0124145 -13.324895 -1.8418727 4
12.682381 -16.304506 -1.8005276 24
4.2841072 -8.146122 -1.7789568 5
7.4789777 -9.6076937 -1.9250913 5
3.0699463 -5.8438277 -1.7581772 5
4.9206376 -6.3056331 -1.8356338 5
6.305119 -14.504086 3.3513811 12
15.002104 -22.439009 6.7111807 3
16.119511 -37.026539 5.6706076 6
14.72687 -22.060684 4.6660786 6
15.716467 -36.066116 2.7417192 38
17.604609 -26.410662 3.3323674 13
28.803192 -66.074684 0 25
17.660671 -26.514793 1.1112871 70
nan nan nan 0
17.653164 -26.513554 -1.1166705 9
5.0434513 -11.605311 -1.7690101 5
10.970933 -16.478823 -2.070085 4
3.2738712 -7.5548873 -1.7442518 5
5.8690791 -8.8173466 -1.8615098 4
2.4264748 -5.6234488 -1.7451007 6
4.0507331 -6.0821538 -1.8119363 5
15.243046 -29.178503 7.5800562 13
14.807225 -19.021441 6.4407215 14
13.584888 -25.993011 4.6292295 2
12.623876 -16.276236 3.9933825 21
15.391929 -29.451044 2.904247 27
12.999019 -16.801968 2.6003416 23
nan nan nan 0
nan nan nan 0
nan nan nan 0
21.874138 -28.329676 -0.62414676 30
6.9509392 -13.32069 -1.8379176 4
12.725887 -16.478752 -1.8148797 6
4.2545114 -8.1588497 -1.7784805 5
7.4363317 -9.6220236 -1.9227424 5
3.0472989 -5.850224 -1.756884 6
4.8985968 -6.3227706 -1.8356338 5
6.305119 -14.504086 3.3513811 12
19.09477 -28.559494 8.5441933 6
19.0014 -43.648106 6.6855273 1
16.212963 -24.286465 5.1375003 1
16.6667 -38.247334 2.9076729 1
20.576677 -30.868778 3.8955142 2
28.803192 -66.074684 0 25
17.660671 -26.514793 1.1112871 70
nan nan nan 0
23.231161 -34.890072 -1.4698662 16
5.0434513 -11.605311 -1.7690101 5
10.970938 -16.478821 -2.070085 4
3.2738712 -7.5548873 -1.7442518 5
5.8706183 -8.8163223 -1.8615098 4
2.4264748 -5.6234488 -1.7451007 6
4.0517945 -6.0814471 -1.8119363 5
15.243046 -29.178503 7.5800562 13
14.810546 -19.018856 6.4407215 14
13.582603 -25.988636 4.6284494 7
12.626716 -16.274031 3.9933825 21
16.930628 -32.39555 3.1949115 1
13.001951 -16.7997 2.6003416 23
35.774426 -68.484856 1.3480674 1
nan nan nan 0
19.804115 -37.926617 -2.2479696 1
21.879086 -28.325857 -0.62414676 30
6.9509392 -13.32069 -1.8379176 4
12.728765 -16.476532 -1.8148797 6
4.2559352 -8.1581078 -1.7784805 5
7.4380112 -9.6207247 -1.9227424 5
3.0483201 -5.8496923 -1.756884 6
4.8985968 -6.3227706 -1.8356338 5
6.2892461 -14.606875 3.3700778 1
17.260479 -26.012394 7.7632751 18
16.061708 -37.248535 5.6960063 6
16.118568 -24.328543 5.1344647 3
15.616165 -36.180286 2.7462418 39
17.49859 -26.451216 3.3297541 3
nan nan nan 0
17.624506 -26.661732 1.1148643 31
nan nan nan 0
17.53709 -26.539579 -1.1151798 68
4.9970422 -11.6092 -1.7669278 5
10.925689 -16.535686 -2.0724292 4
3.2455533 -7.5617747 -1.7432114 6
5.8370924 -8.832653 -1.8606417 4
2.408716 -5.6363053 -1.746478 6
4.025187 -6.087461 -1.8095187 5
nan nan nan 0
14.764753 -19.097183 6.4497685 14
13.538378 -26.125784 4.6444483 5
12.596797 -16.352997 4.0019612 23
16.737242 -32.299664 3.1796594 39
12.98255 -16.896132 2.6082516 13
nan nan nan 0
nan nan nan 0
nan nan nan 0
21.802895 -28.431808 -0.62480116 30
6.890718 -13.318424 -1.8342667 4
12.75001 -16.623606 -1.8261873 13
4.2240505 -8.1663742 -1.777052 5
7.3848286 -9.6211748 -1.9176525 5
3.0289903 -5.8624434 -1.7575307 6
4.8690639 -6.3301811 -1.8328263 5
6.2892461 -14.606875 3.3700778 1
17.260479 -26.012394 7.7632751 18
18.796003 -43.5914 6.666739 9
16.118568 -24.328543 5.1344647 3
15.616165 -36.180286 2.7462418 39
20.247921 -30.606577 3.8534417 13
28.552555 -66.128914 0 1
17.624506 -26.661732 1.1148643 31
nan nan nan 0
17.53709 -26.539579 -1.1151798 68
4.9970422 -11.6092 -1.7669278 5
10.925689 -16.535686 -2.0724292 4
3.2455533 -7.5617747 -1.7432114 6
5.8370924 -8.832653 -1.8606417 4
2.408716 -5.6363053 -1.746478 6
4.025187 -6.087461 -1.8095187 5
nan nan nan 0
14.764753 -19.097183 6.4497685 14
13.538378 -26.125784 4.6444483 5
12.596797 -16.352997 4.0019612 23
16.737242 -32.299664 3.1796594 39
12.98255 -16.896132 2.6082516 13
19.76103 -38.151939 0.74936265 1
nan nan nan 0
19.67046 -37.993298 -2.2478385 1
21.802895 -28.431808 -0.62480116 30
6.890718 -13.318424 -1.8342667 4
12.75001 -16.623606 -1.8261873 13
4.2240505 -8.1663742 -1.777052 5
7.3848286 -9.6211748 -1.9176525 5
3.0289903 -5.8624434 -1.7575307 6
4.8690639 -6.3301811 -1.8328263 5
nan nan nan 0
17.242195 -26.172806 7.7940779 31
16.017843 -37.488285 5.7245369 25
14.832119 -22.549166 4.7480459 13
15.520614 -36.289204 2.7505908 41
16.928921 -25.775541 3.2375078 6
28.315409 -66.18187 0 20
19.992809 -30.463022 1.2712141 3
nan nan nan 0
17.455835 -26.608032 -1.1156182 66
4.9517236 -11.609764 -1.7644984 5
10.823053 -16.499063 -2.0633135 4
3.2223711 -7.5769973 -1.7442518 6
5.7996635 -8.839612 -1.8580369 5
2.3900123 -5.6442618 -1.746478 6
4.0049787 -6.1007752 -1.8095187 5
nan nan nan 0
14.7087 -19.155617 6.4529996 12
13.490046 -26.245209 4.6577158 8
12.745358 -16.659721 4.0667782 23
16.427404 -31.960703 3.1408751 38
12.964092 -16.988398 2.6158576 9
nan nan nan 0
nan nan nan 0
19.628752 -38.222664 -2.2575529 65
21.737272 -28.541733 -0.6256302 32
6.8351874 -13.319122 -1.8312242 4
12.806524 -16.812384 -1.8422791 21
4.1913476 -8.1694174 -1.7746713 5
7.3109493 -9.5906429 -1.9066901 8
3.0073311 -5.8681569 -1.7562374 5
4.843606 -6.340488 -1.8311417 5
nan nan nan 0
17.242195 -26.172806 7.7940779 31
18.762207 -43.913033 6.7064033 1
16.005327 -24.332491 5.1240559 1
15.520614 -36.289204 2.7505908 41
20.243151 -30.809254 3.87095 4
28.315409 -66.18187 0 20
19.992809 -30.463022 1.2712141 3
nan nan nan 0
17.455835 -26.608032 -1.1156182 66
4.9537501 -11.608899 -1.7644984 5
10.823053 -16.499063 -2.0633135 4
3.2236936 -7.5764341 -1.7442518 6
5.7996635 -8.839612 -1.8580369 5
2.3909972 -5.6438446 -1.746478 6
4.0049787 -6.1007752 -1.8095187 5
nan nan nan 0
16.007755 -20.846746 7.0235982 1
13.494626 -26.242855 4.6577158 8
12.745358 -16.659721 4.0667782 23
16.432983 -31.957838 3.1408751 38
14.566238 -19.086952 2.9395692 9
19.677637 -38.284973 0.75075883 1
39.363201 -51.660362 3.4019678 1
19.635422 -38.219238 -2.2575529 65
21.742249 -28.537943 -0.6256302 32
6.8375125 -13.317929 -1.8312242 4
12.809459 -16.810148 -1.8422791 21
4.1913476 -8.1694174 -1.7746713 5
7.312623 -9.5893669 -1.9066901 8
3.0083551 -5.8676319 -1.7562374 5
4.8447132 -6.3396425 -1.8311417 5
6.33711 -14.998543 3.450577 2
17.057793 -26.090698 7.7518001 1
15.876279 -37.518887 5.7207098 18
15.913566 -24.377905 5.1218877 6
15.330636 -36.193886 2.7392838 39
16.813473 -25.785719 3.2317588 13
28.089094 -66.291817 0 6
19.983175 -30.681265 1.2774088 6
nan nan nan 0
17.386028 -26.704395 -1.1171088 3
4.9026036 -11.601031 -1.7606806 4
10.758612 -16.526325 -2.062011 4
3.1934335 -7.5786252 -1.7421709 5
5.7647414 -8.8536148 -1.8567346 5
2.3694255 -5.6477232 -1.7451007 6
3.9757099 -6.1025252 -1.8058923 5
nan nan nan 0
14.649065 -19.216442 6.4562306 4
13.494897 -26.4702 4.6897144 13
12.822245 -16.881926 4.110148 25
16.414076 -32.196953 3.1587422 38
14.531 -19.179213 2.9459584 22
nan nan nan 0
nan nan nan 0
19.454306 -38.194111 -2.2520394 40
21.841574 -28.876787 -0.6313895 30
6.7842298 -13.328446 -1.8293988 4
12.836372 -16.967953 -1.854674 1
4.1605806 -8.1796236 -1.773719 5
7.2761226 -9.610899 -1.905907 10
2.9823864 -5.8673315 -1.7530042 5
4.8225536 -6.3565154 -1.8311417 5
6.33711 -14.998543 3.450577 2
17.057793 -26.090698 7.7518001 1
18.617491 -43.998779 6.7095346 1
17.722582 -27.148701 5.7047677 13
15.330636 -36.193886 2.7392838 39
19.967157 -30.633301 3.8395917 9
30.331127 -71.583984 0 6
21.401417 -32.858501 1.3681475 9
nan nan nan 0
23.447346 -36.013088 -1.5069571 13
4.900579 -11.601886 -1.7606806 4
10.758612 -16.526325 -2.062011 4
3.1921105 -7.5791821 -1.7421709 5
5.7647414 -8.8536148 -1.8567346 5
2.3684399 -5.6481361 -1.7451007 6
3.9757099 -6.1025252 -1.8058923 5
nan nan nan 0
16.024225 -21.019636 7.0630164 13
13.490277 -26.472557 4.6897144 13
12.822245 -16.881926 4.110148 25
16.408455 -32.199818 3.1587422 38
14.531 -19.179213 2.9459584 22
36.200603 -71.074745 1.3916548 1
39.245903 -51.881077 3.4074631 1
19.447639 -38.197506 -2.2520394 40
21.836538 -28.880596 -0.6313895 30
6.7819033 -13.329631 -1.8293988 4
12.833411 -16.970194 -1.854674 1
4.1605806 -8.1796236 -1.773719 5
7.2744451 -9.6121683 -1.905907 10
2.9813621 -5.8678522 -1.7530042 5
4.821444 -6.3573565 -1.8311417 5
6.1649151 -14.734036 3.3846195 6
16.326147 -25.163094 7.4588809 36
15.746173 -37.576359 5.7210574 1
15.782853 -24.363052 5.107142 8
15.183948 -36.198879 2.7356305 44
19.824995 -30.64854 3.8327975 30
27.969715 -66.656876 0 6
19.886806 -30.767618 1.2781067 16
nan nan nan 0
23.53574 -36.426273 -1.5208113 22
4.8552785 -11.607501 -1.7589452 5
10.660374 -16.501129 -2.0541973 4
3.1637549 -7.5857644 -1.7411306 5
5.7284555 -8.8654127 -1.8549981 5
2.3459496 -5.6497092 -1.7430346 6
3.9530661 -6.1143293 -1.805288 5
nan nan nan 0
14.574611 -19.257835 6.4529996 20
13.379974 -26.484217 4.6834707 4
12.922858 -17.138174 4.1616201 23
16.292587 -32.250225 3.1580884 38
14.452029 -19.213959 2.9435246 26
nan nan nan 0
nan nan nan 0
19.272566 -38.182693 -2.2471819 28
21.792625 -29.032604 -0.63304752 28
6.7230444 -13.328851 -1.8260522 4
12.863837 -17.134367 -1.8677212 1
4.1253753 -8.1809464 -1.7708619 5
7.2616229 -9.6651316 -1.9113883 19
2.9597754 -5.8760657 -1.7523575 5
4.7918906 -6.3644209 -1.8283339 5
6.1649151 -14.734036 3.3846195 6
16.326147 -25.163094 7.4588809 36
18.38344 -43.871693 6.6803083 1
15.782853 -24.363052 5.107142 8
15.183948 -36.198879 2.7356305 44
19.824995 -30.64854 3.8327975 30
29.977581 -71.442749 0 1
19.886806 -30.767618 1.2781067 16
nan nan nan 0
23.53574 -36.426273 -1.5208113 22
4.8552785 -11.607501 -1.7589452 5
10.660374 -16.501129 -2.0541973 4
3.1637549 -7.5857644 -1.7411306 5
5.7284555 -8.8654127 -1.8549981 5
2.3459496 -5.6497092 -1.7430346 6
3.9530661 -6.1143293 -1.805288 5
nan nan nan 0
16.162132 -21.354633 7.1567163 1
18.039461 -35.708435 6.3165588 1
12.922858 -17.138174 4.1616201 23
16.292587 -32.250225 3.1580884 38
14.452029 -19.213959 2.9435246 26
36.30154 -71.892395 1.4051805 1
39.043579 -51.989811 3.4056315 1
19.272566 -38.182693 -2.2471819 28
21.792625 -29.032604 -0.63304752 28
6.7230444 -13.328851 -1.8260522 4
12.863837 -17.134367 -1.8677212 1
4.1253753 -8.1809464 -1.7708619 5
7.2616229 -9.6651316 -1.9113883 19
2.9597754 -5.8760657 -1.7523575 5
4.7918906 -6.3644209 -1.8283339 5
5.9967947 -14.480857 3.3212585 12
16.250881 -25.249279 7.466732 30
15.803671 -38.104919 5.7927318 1
15.566989 -24.223974 5.0659413 25
15.053083 -36.258896 2.7359786 37
18.058153 -28.143051 3.5108495 4
27.792328 -66.920563 0 2
20.07196 -31.305109 1.2973887 31
nan nan nan 0
nan nan nan 0
4.8013468 -11.597764 -1.7547803 4
10.583723 -16.514973 -2.0510721 4
3.1368625 -7.5995703 -1.7416508 5
5.6906066 -8.8780584 -1.8532616 5
2.3252265 -5.6582694 -1.7430346 6
3.9266992 -6.1226521 -1.8034749 6
nan nan nan 0
14.486522 -19.287956 6.4452453 10
13.279499 -26.526455 4.6823001 3
12.927612 -17.275795 4.1835437 2
16.204374 -32.369854 3.1639712 36
14.399325 -19.290655 2.9471753 24
nan nan nan 0
nan nan nan 0
19.158175 -38.304432 -2.2502015 22
22.140089 -29.721619 -0.6463114 30
6.6619449 -13.328985 -1.8227055 4
12.876859 -17.283239 -1.8788115 1
4.0931692 -8.1916208 -1.7699095 5
7.2379622 -9.7075129 -1.9145204 21
2.939297 -5.8890362 -1.7530042 5
4.7699919 -6.3838921 -1.8288956 5
5.9967947 -14.480857 3.3212585 12
16.250881 -25.249279 7.466732 30
15.972449 -38.511986 5.8546634 1
15.566989 -24.223974 5.0659413 25
15.053083 -36.258896 2.7359786 37
19.811899 -30.875839 3.8521354 6
29.73662 -71.602943 0 20
20.07196 -31.305109 1.2973887 31
nan nan nan 0
nan nan nan 0
4.8013468 -11.597764 -1.7547803 4
10.583717 -16.514975 -2.0510721 4
3.1368625 -7.5995703 -1.7416508 5
5.6890574 -8.8790512 -1.8532616 5
2.3252265 -5.6582694 -1.7430346 6
3.9256303 -6.1233373 -1.8034749 6
nan nan nan 0
14.483154 -19.290483 6.4452453 10
17.969254 -35.89576 6.3380213 6
12.924598 -17.278053 4.1835437 2
16.204374 -32.369854 3.1639712 36
14.395958 -19.293169 2.9471753 24
36.458336 -72.865486 1.4215858 1
38.915257 -52.235432 3.4119117 1
19.158175 -38.304432 -2.2502015 22
22.134901 -29.725481 -0.6463114 30
6.6619449 -13.328985 -1.8227055 4
12.873842 -17.285488 -1.8788115 1
4.0917397 -8.1923351 -1.7699095 5
7.236268 -9.7087755 -1.9145204 21
2.9382691 -5.8895488 -1.7530042 5
4.7699919 -6.3838921 -1.8288956 5
6.0342903 -14.716676 3.3705971 6
16.180927 -25.334475 7.4751873 18
15.865188 -38.633923 5.8647537 16
15.433348 -24.201357 5.0498948 17
14.973823 -36.426559 2.7446764 36
17.885015 -28.08847 3.4962156 2
27.650776 -67.241455 0 9
20.025608 -31.474052 1.3014895 23
nan nan nan 0
23.605696 -37.114464 -1.5424696 1
4.757081 -11.605289 -1.7533921 5
10.495311 -16.503567 -2.0450816 4
3.1056964 -7.5991545 -1.7390499 5
5.6501007 -8.8863907 -1.8506567 5
2.3027487 -5.6596713 -1.7409686 6
3.9068372 -6.1410956 -1.8046836 5
nan nan nan 0
14.360872 -19.267349 6.4206896 9
13.1978 -26.594767 4.686202 6
16.035761 -21.592007 5.2163229 16
16.198658 -32.64262 3.1851065 36
14.353642 -19.377195 2.9523475 19
nan nan nan 0
nan nan nan 0
19.038765 -38.400146 -2.2519078 9
22.198935 -30.02968 -0.65124178 32
6.6087689 -13.338817 -1.8208801 4
12.954128 -17.520538 -1.8994696 2
4.0576754 -8.19557 -1.7675288 5
7.1979265 -9.7280226 -1.9133458 16
2.9144828 -5.8932743 -1.7510644 6
4.7404165 -6.3907247 -1.826088 5
6.0342903 -14.716676 3.3705971 6
16.180927 -25.334475 7.4751873 18
nan nan nan 0
15.433348 -24.201357 5.0498948 17
14.973823 -36.426559 2.7446764 36
19.391487 -30.454067 3.7909858 20
29.426607 -71.560638 0 13
20.025608 -31.474052 1.3014895 23
nan nan nan 0
23.605696 -37.114464 -1.5424696 1
4.757081 -11.605289 -1.7533921 5
10.495317 -16.503563 -2.0450816 4
3.1056964 -7.5991545 -1.7390499 5
5.6516519 -8.8854046 -1.8506567 5
2.3027487 -5.6596713 -1.7409686 6
3.9079089 -6.1404133 -1.8046836 5
7.532268 -15.183254 3.8986838 1
14.364233 -19.264843 6.4206896 9
17.933844 -36.139648 6.3700194 1
16.039532 -21.589207 5.2163229 16
16.198658 -32.64262 3.1851065 36
14.357023 -19.374689 2.9523475 19
36.651356 -73.89476 1.439169 1
22.255146 -30.083725 1.9593273 1
19.038765 -38.400146 -2.2519078 9
22.204176 -30.025805 -0.65124178 32
6.6087689 -13.338817 -1.8208801 4
12.957186 -17.518276 -1.8994696 2
4.0591059 -8.1948614 -1.7675288 5
7.1996241 -9.7267666 -1.9133458 16
2.9155111 -5.892766 -1.7510644 6
4.7404165 -6.3907247 -1.826088 5
5.8088827 -14.301542 3.2708814 7
15.983797 -25.209751 7.4226427 4
nan nan nan 0
15.314815 -24.19208 5.0373178 16
15.186751 -37.296024 2.8064308 30
17.854216 -28.246401 3.5084977 22
27.478565 -67.457802 0 18
19.95048 -31.586758 1.3034089 28
nan nan nan 0
22.654104 -35.880642 -1.4880171 16
4.7148476 -11.611823 -1.7520038 4
10.404689 -16.481514 -2.0380495 4
3.0813956 -7.6116767 -1.73957 6
5.6116366 -8.8874454 -1.8471839 5
2.2839682 -5.6672764 -1.7409686 6
3.8823404 -6.1451373 -1.8022661 5
7.6528306 -15.555724 3.9879665 19
14.357771 -19.389994 6.446537 3
17.746307 -36.06155 6.3458257 18
nan nan nan 0
16.218971 -32.957607 3.2105994 34
14.308878 -19.444174 2.9556942 9
nan nan nan 0
nan nan nan 0
19.009352 -38.662476 -2.2635915 6
22.292421 -30.355116 -0.65678298 34
6.5546541 -13.340613 -1.8181419 4
13.030276 -17.739763 -1.9188231 3
4.0297456 -8.2038708 -1.7665764 5
7.1424551 -9.7167759 -1.9066901 14
2.8959541 -5.9024019 -1.7510644 5
4.7177515 -6.4044485 -1.8255262 5
6.600698 -16.252525 3.7180438 1
18.104052 -28.553316 8.4083023 18
15.776155 -38.782639 5.8793669 1
15.314815 -24.19208 5.0373178 16
15.186751 -37.296024 2.8064308 30
19.295717 -30.514837 3.7909858 1
29.270239 -71.856941 0 1
19.95048 -31.586758 1.3034089 28
nan nan nan 0
22.654104 -35.880642 -1.4880171 16
4.7168741 -11.611 -1.7520038 4
10.404689 -16.481514 -2.0380495 4
3.0827239 -7.6111393 -1.73957 6
5.6116366 -8.8874454 -1.8471839 5
2.2849572 -5.6668773 -1.7409686 6
3.8823404 -6.1451373 -1.8022661 5
7.6555452 -15.554388 3.9879665 19
18.103994 -24.447182 8.1305466 6
17.7526 -36.058453 6.3458257 18
nan nan nan 0
16.224724 -32.954777 3.2105994 34
14.308878 -19.444174 2.9556942 9
36.842804 -74.870766 1.4559233 1
22.010384 -29.960207 1.9465051 1
19.0161 -38.659153 -2.2635915 6
22.297714 -30.351227 -0.65678298 34
6.556982 -13.33947 -1.8181419 4
15.768251 -21.457855 -2.3219848 1
4.0297456 -8.2038708 -1.7665764 5
7.1441517 -9.7155294 -1.9066901 14
2.8969843 -5.9018965 -1.7510644 5
4.7188692 -6.4036255 -1.8255262 5
6.5548658 -16.302696 3.7242761 15
15.912499 -25.292084 7.4304948 36
nan nan nan 0
15.306244 -24.36631 5.0624719 13
15.02664 -37.274788 2.800864 26
16.769258 -26.725971 3.3125069 6
nan nan nan 0
nan nan nan 0
nan nan nan 0
nan nan nan 0
4.6698542 -11.611314 -1.7495743 5
10.324651 -16.481913 -2.0336218 5
3.0515933 -7.6105037 -1.736969 5
5.5818868 -8.9090652 -1.847618 5
2.2669406 -5.6792841 -1.7423459 6
3.8557096 -6.1504312 -1.7998486 5
7.6225624 -15.624809 3.9991972 16
15.872416 -21.591827 7.1612401 13
17.597385 -36.06028 6.3352895 13
16.581181 -22.638216 5.4427052 5
16.094299 -32.979877 3.2075491 32
14.665518 -20.074997 3.0439239 12
nan nan nan 0
nan nan nan 0
19.077963 -39.12923 -2.2872212 13
22.322742 -30.608603 -0.66066617 34
6.5071192 -13.355583 -1.8172293 4
13.088827 -17.943821 -1.9362196 3
4.00001 -8.2156801 -1.7661003 5
7.0912595 -9.714489 -1.9016004 16
2.8784769 -5.916316 -1.7523575 5
4.6993666 -6.4239893 -1.8266493 5
6.5548658 -16.302696 3.7242761 15
15.912499 -25.292084 7.4304948 36
15.649003 -38.858135 5.8824983 1
15.306244 -24.36631 5.0624719 13
15.02664 -37.274788 2.800864 26
19.226025 -30.652756 3.7993484 9
27.267233 -67.613594 0 1
nan nan nan 0
nan nan nan 0
nan nan nan 0
4.6678281 -11.612128 -1.7495743 5
10.324651 -16.481913 -2.0336218 5
3.0502648 -7.6110358 -1.736969 5
5.5818868 -8.9090652 -1.847618 5
2.2659495 -5.6796799 -1.7423459 6
3.8557096 -6.1504312 -1.7998486 5
7.6198354 -15.626139 3.9991972 16
17.96847 -24.442131 8.1079292 1
17.591093 -36.063354 6.3352895 13
16.581181 -22.638216 5.4427052 5
16.088545 -32.982689 3.2075491 32
15.876363 -21.731833 3.2955306 1
36.985477 -75.861343 1.4725467 1
21.945395 -30.091311 1.9500376 1
19.071131 -39.132561 -2.2872212 13
22.317404 -30.612497 -0.66066617 34
6.5047879 -13.35672 -1.8172293 4
15.711517 -21.545685 -2.3252466 2
4.00001 -8.2156801 -1.7661003 5
7.0895638 -9.7157269 -1.9016004 16
2.8774445 -5.9168181 -1.7523575 5
4.698246 -6.424809 -1.8266493 5
6.0577669 -15.218861 3.4713514 9
15.831824 -25.359821 7.4341183 36
15.521518 -38.933224 5.8856301 6
15.223701 -24.423767 5.0633392 9
14.917689 -37.380287 2.8048649 28
16.689585 -26.816809 3.3161654 35
nan nan nan 0
nan nan nan 0
nan nan nan 0
22.874001 -36.795403 -1.5193206 6
4.6236067 -11.619148 -1.748186 4
10.251302 -16.492514 -2.0304961 5
3.0227787 -7.6193647 -1.7364489 5
5.5403528 -8.9117708 -1.8441451 5
2.2434664 -5.6808472 -1.7402799 6
3.8367808 -6.1679721 -1.8010573 5
7.5249667 -15.56929 3.977859 16
15.804068 -21.656855 7.1644707 3
17.435007 -36.062286 6.3243632 18
15.667686 -21.548801 5.1672339 4
16.050274 -33.197845 3.2230194 32
14.537069 -20.045729 3.0317543 12
nan nan nan 0
nan nan nan 0
nan nan nan 0
22.267572 -30.769178 -0.66236782 31
6.4484186 -13.359231 -1.814491 4
13.209945 -18.24987 -1.9640539 4
3.9659767 -8.2185411 -1.7637194 5
7.0744462 -9.7664032 -1.9066901 14
2.8525815 -5.9181237 -1.7497711 5
4.6700611 -6.4332871 -1.8244032 5
6.0577669 -15.218861 3.4713514 9
nan nan nan 0
15.521518 -38.933224 5.8856301 6
15.223701 -24.423767 5.0633392 9
14.920462 -37.387234 2.8053868 28
16.689585 -26.816809 3.3161654 35
27.240507 -68.233101 0 1
nan nan nan 0
nan nan nan 0
34.547356 -55.571335 -2.2952464 1
4.6236067 -11.619148 -1.748186 4
10.251302 -16.492514 -2.0304961 5
3.0227787 -7.6193647 -1.7364489 5
5.5403528 -8.9117708 -1.8441451 5
2.2434664 -5.6808472 -1.7402799 6
3.8367808 -6.1679721 -1.8010573 5
7.5249667 -15.56929 3.977859 16
17.089899 -23.41823 7.7479935 10
17.435007 -36.062286 6.3243632 18
18.572113 -25.542007 6.1261411 1
16.050274 -33.197845 3.2230194 32
14.537069 -20.045729 3.0317543 12
nan nan nan 0
21.868044 -30.20615 1.9525236 1
19.152662 -39.650749 -2.3136077 1
22.267572 -30.769178 -0.66236782 31
6.4484186 -13.359231 -1.814491 4
15.747227 -21.7537 -2.341773 3
3.9659767 -8.2185411 -1.7637194 5
7.0744462 -9.7664032 -1.9066901 14
2.8525815 -5.9181237 -1.7497711 5
4.6700611 -6.4332871 -1.8244032 5
nan nan nan 0
15.782813 -25.478859 7.4528408 32
nan nan nan 0
15.081365 -24.384628 5.0442567 8
14.803606 -37.473885 2.8079963 29
16.486134 -26.69721 3.2942145 3
nan nan nan 0
19.507086 -31.613216 1.2959927 9
nan nan nan 0
34.502708 -55.934006 -2.3052428 25
4.574861 -11.614483 -1.7450625 4
10.183227 -16.511269 -2.0284126 5
2.9934852 -7.6230392 -1.7348881 6
5.5053325 -8.9247704 -1.8428427 5
2.2227497 -5.6864047 -1.7395912 6
3.8126781 -6.1771994 -1.7998486 5
7.4895144 -15.635011 3.9879665 21
16.991045 -23.454277 7.7402391 28
17.323959 -36.154106 6.3298264 16
16.429918 -22.763371 5.4450884 7
15.934296 -33.253666 3.2230194 23
14.506161 -20.150715 3.0399687 5
nan nan nan 0
nan nan nan 0
nan nan nan 0
22.288391 -31.025352 -0.66620737 31
6.3931818 -13.363749 -1.812057 4
13.349674 -18.578989 -1.9944975 3
3.9298544 -8.2168341 -1.7603861 5
7.0374279 -9.7870293 -1.905907 9
2.8339868 -5.932404 -1.7510644 5
4.6433001 -6.4436235 -1.8227187 5
nan nan nan 0
15.782813 -25.478859 7.4528408 32
15.339184 -38.869717 5.8678851 1
15.081365 -24.384628 5.0442567 8
14.803606 -37.473885 2.8079963 29
18.384453 -29.770853 3.6739142 13
24.392172 -61.722214 0 1
19.507086 -31.613216 1.2959927 9
nan nan nan 0
34.502708 -55.934006 -2.3052428 25
4.574861 -11.614483 -1.7450625 4
10.183227 -16.511269 -2.0284126 5
2.9934852 -7.6230392 -1.7348881 6
5.5053325 -8.9247704 -1.8428427 5
2.2227497 -5.6864047 -1.7395912 6
3.8126781 -6.1771994 -1.7998486 5
7.4895144 -15.635011 3.9879665 21
16.991045 -23.454277 7.7402391 28
17.323959 -36.154106 6.3298264 16
18.602081 -25.77183 6.1656985 2
15.934296 -33.253666 3.2230194 23
14.506161 -20.150715 3.0399687 5
31.787613 -66.371811 1.2839298 1
21.644434 -30.118099 1.9419256 1
19.289013 -40.291592 -2.3470831 1
22.288391 -31.025352 -0.66620737 31
6.3931818 -13.363749 -1.812057 4
15.726437 -21.885386 -2.3500364 6
3.9298544 -8.2168341 -1.7603861 5
7.0374279 -9.7870293 -1.905907 9
2.8339868 -5.932404 -1.7510644 5
4.6433001 -6.4436235 -1.8227187 5
6.32058 -16.216604 3.6889601 19
15.64106 -25.457994 7.4298906 31
nan nan nan 0
16.275566 -26.532053 5.4766464 1
14.690664 -37.590614 2.8126931 1
nan nan nan 0
nan nan nan 0
19.438042 -31.761217 1.2991337 3
nan nan nan 0
22.898293 -37.429138 -1.5386992 16
4.5286684 -11.621943 -1.7436742 4
10.122642 -16.548479 -2.0284126 5
2.9646411 -7.63168 -1.734368 6
5.4635868 -8.9301891 -1.8398037 5
2.2027581 -5.6967554 -1.7402799 6
3.7849433 -6.1828575 -1.7974311 5
7.3705535 -15.532498 3.9548366 23
16.971235 -23.608549 7.7706108 32
17.240038 -36.319977 6.3477769 18
18.331692 -25.594454 6.1070776 16
15.946859 -33.595337 3.2504733 25
14.44375 -20.219898 3.0424027 15
nan nan nan 0
nan nan nan 0
nan nan nan 0
22.696951 -31.839516 -0.68191463 30
6.3345966 -13.366909 -1.8093189 4
13.382727 -18.769722 -2.0097194 6
3.89446 -8.2200928 -1.7580054 5
6.9986391 -9.8087387 -1.9051239 8
2.8132567 -5.9449339 -1.751711 5
4.6239061 -6.4665408 -1.8244032 5
6.32058 -16.216604 3.6889601 19
15.64106 -25.457994 7.4298906 31
nan nan nan 0
16.275566 -26.532053 5.4766464 1
nan nan nan 0
nan nan nan 0
24.200367 -61.899685 0 1
19.43413 -31.754824 1.2988719 3
nan nan nan 0
34.430473 -56.277466 -2.3141866 1
4.5286684 -11.621943 -1.7436742 4
10.122636 -16.548483 -2.0284126 5
2.9646411 -7.63168 -1.734368 6
5.462028 -8.9311428 -1.8398037 5
2.2027581 -5.6967554 -1.7402799 6
3.7838643 -6.1835179 -1.7974311 5
7.3705535 -15.532498 3.9548366 23
16.967115 -23.611511 7.7706108 32
17.240038 -36.319977 6.3477769 18
20.54641 -28.696234 6.8472281 4
15.946859 -33.595337 3.2504733 25
14.44022 -20.22242 3.0424027 15
31.369497 -66.119759 1.2768179 1
21.402534 -30.024137 1.9305426 1
19.345516 -40.79287 -2.3721569 1
22.691395 -31.843475 -0.68191463 30
6.3345966 -13.366909 -1.8093189 4
15.796997 -22.162584 -2.3733041 3
3.8930254 -8.2207727 -1.7580054 5
6.9969273 -9.8099604 -1.9051239 8
2.8122189 -5.945425 -1.751711 5
4.6239061 -6.4665408 -1.8244032 5
6.1513515 -15.946498 3.622483 23
16.529551 -27.115648 7.8973541 35
nan nan nan 0
16.116283 -26.479342 5.4540944 26
15.959777 -41.263401 3.0835423 3
nan nan nan 0
nan nan nan 0
19.368557 -31.897211 1.3019257 9
nan nan nan 0
34.20789 -56.354599 -2.312433 6
4.480062 -11.616889 -1.7405505 5
10.042875 -16.547585 -2.0239849 5
2.9353545 -7.6351328 -1.7328073 6
5.4244313 -8.9396315 -1.8376331 5
2.1837165 -5.706655 -1.7409686 7
3.7609971 -6.1946158 -1.7968267 5
7.4075003 -15.752138 4.004251 16
13.888288 -19.471479 6.3903179 2
16.485699 -35.045921 6.1148129 2
16.055002 -22.591167 5.3755054 4
15.604773 -33.173027 3.2042809 18
14.381024 -20.288895 3.0448365 8
nan nan nan 0
21.332214 -30.147568 1.9336826 43
nan nan nan 0
22.580103 -31.922489 -0.68191463 28
6.2836804 -13.379956 -1.808102 4
13.319599 -18.826778 -2.0105891 6
3.8643055 -8.2343121 -1.7580054 5
6.9469385 -9.8121614 -1.9008173 5
2.7863264 -5.9442706 -1.7484778 5
4.5956616 -6.474699 -1.8221573 5
6.1513515 -15.946498 3.622483 23
16.529551 -27.115648 7.8973541 35
nan nan nan 0
16.116283 -26.479342 5.4540944 26
15.959777 -41.263401 3.0835423 3
nan nan nan 0
23.961601 -61.925488 0 1
19.35429 -31.87372 1.3009659 9
nan nan nan 0
34.20789 -56.354599 -2.312433 6
4.480062 -11.616889 -1.7405505 5
10.042881 -16.547581 -2.0239849 5
2.9353545 -7.6351328 -1.7328073 6
5.4259915 -8.9386845 -1.8376331 5
2.1837165 -5.706655 -1.7409686 7
3.7620785 -6.1939592 -1.7968267 5
7.4075003 -15.752138 4.004251 16
16.9238 -23.716787 7.7867661 20
17.760574 -37.756401 6.5881553 6
18.198147 -25.596289 6.0923028 16
15.604773 -33.173027 3.2042809 18
14.384566 -20.286385 3.0448365 8
30.98855 -65.909904 1.270666 16
21.337473 -30.143843 1.9336826 43
18.745371 -39.886307 -2.3155768 1
22.585676 -31.918549 -0.68191463 28
6.2836804 -13.379956 -1.808102 4
13.317126 -18.81632 -2.0097194 1
3.8657427 -8.2336369 -1.7580054 5
6.9486513 -9.8109493 -1.9008173 5
2.787364 -5.9437842 -1.7484778 5
4.5956616 -6.474699 -1.8221573 5
6.0591974 -15.863996 3.599112 19
16.630453 -27.48579 7.9891558 31
nan nan nan 0
15.38286 -25.464226 5.2342134 23
14.735852 -38.476963 2.8714902 2
16.971079 -28.137236 3.4499621 26
nan nan nan 0
19.282021 -31.993362 1.3032343 9
nan nan nan 0
34.044029 -56.506245 -2.3140113 9
4.4335728 -11.610862 -1.7374269 5
9.9263573 -16.478569 -2.011483 5
2.9134946 -7.6539683 -1.7348881 6
5.3950486 -8.9545212 -1.8371991 5
2.1639307 -5.711617 -1.7402799 6
3.7352524 -6.1960144 -1.7938048 5
7.2121696 -15.469696 3.9261985 19
13.84241 -19.536688 6.3974261 25
17.027899 -36.512573 6.3610444 1
15.96838 -22.619442 5.3702631 9
15.46521 -33.161392 3.19818 6
15.110284 -21.459888 3.2136898 6
nan nan nan 0
21.227346 -30.20014 1.9327668 24
nan nan nan 0
22.676615 -32.273445 -0.6878922 30
6.2277584 -13.375974 -1.8047553 4
13.316251 -18.947987 -2.0190699 3
3.8353121 -8.2397346 -1.7565769 5
6.8848124 -9.7895164 -1.8922038 4
2.7686555 -5.9551854 -1.7491244 6
4.5713553 -6.4859228 -1.8210342 5
6.0591974 -15.863996 3.599112 19
16.630453 -27.48579 7.9891558 31
nan nan nan 0
15.38286 -25.464226 5.2342134 23
15.902217 -41.523388 3.0990245 16
16.97599 -28.134274 3.4499621 26
nan nan nan 0
19.265253 -31.965544 1.3021001 1
nan nan nan 0
34.044029 -56.506245 -2.3140113 9
4.4355993 -11.610088 -1.7374269 5
9.9263573 -16.478569 -2.011483 5
2.9148302 -7.65346 -1.7348881 6
5.3950486 -8.9545212 -1.8371991 5
2.1649275 -5.7112389 -1.7402799 6
3.7352524 -6.1960144 -1.7938048 5
7.214869 -15.468437 3.9261985 19
13.84241 -19.536688 6.3974261 25
17.034271 -36.509605 6.3610444 1
18.192448 -25.768759 6.1189923 2
17.331505 -37.146744 3.5831904 1
15.110284 -21.459888 3.2136898 6
30.733801 -65.904991 1.2687026 1
21.227346 -30.20014 1.9327668 24
nan nan nan 0
22.682241 -32.269489 -0.6878922 30
6.230093 -13.374887 -1.8047553 4
13.319558 -18.945662 -2.0190699 3
3.8353121 -8.2397346 -1.7565769 5
6.8865204 -9.7883148 -1.8922038 4
2.769695 -5.9547014 -1.7491244 6
4.5724883 -6.4851251 -1.8210342 5
6.0227928 -15.93538 3.6105378 19
16.714226 -27.843178 8.0761261 27
nan nan nan 0
15.300208 -25.528328 5.236382 31
14.605871 -38.539825 2.87236 6
16.930042 -28.280817 3.460676 35
nan nan nan 0
19.198439 -32.107651 1.3051538 24
nan nan nan 0
33.7812 -56.515366 -2.3095393 16
4.3889222 -11.609287 -1.7349974 5
9.8598471 -16.498178 -2.0096598 5
2.8846524 -7.6544328 -1.7328073 6
5.3574409 -8.9627333 -1.8350285 5
2.1424513 -5.7120099 -1.7382139 6
3.7123559 -6.206934 -1.7932004 4
7.1475463 -15.464779 3.9188988 19
13.757452 -19.561186 6.3896713 30
16.953352 -36.669704 6.3786044 20
15.776629 -22.514277 5.3321352 8
15.378148 -33.262226 3.2029736 23
14.75802 -21.115942 3.1543632 8
nan nan nan 0
21.244675 -30.450123 1.9440191 31
nan nan nan 0
22.610947 -32.407913 -0.68915743 30
6.1729703 -13.37402 -1.8017129 4
nan nan nan 0
3.8054993 -8.250845 -1.7561009 6
6.846653 -9.8041983 -1.8906378 4
2.7478824 -5.9621401 -1.7484778 6
4.5470271 -6.497056 -1.8199111 5
6.0227928 -15.93538 3.6105378 19
16.714226 -27.843178 8.0761261 27
nan nan nan 0
15.300208 -25.528328 5.236382 31
19.679392 -51.931156 3.8712149 6
16.925106 -28.283772 3.460676 35
25.702593 -67.793442 0 1
33.76947 -56.47337 2.2965612 2
nan nan nan 0
33.7812 -56.515366 -2.3095393 16
4.3868961 -11.610054 -1.7349974 5
9.8598471 -16.498178 -2.0096598 5
2.883316 -7.6549358 -1.7328073 6
5.3574409 -8.9627333 -1.8350285 5
2.1414542 -5.7123837 -1.7382139 6
3.7123559 -6.206934 -1.7932004 4
7.1448479 -15.466026 3.9188988 19
13.757452 -19.561186 6.3896713 30
16.946955 -36.672665 6.3786044 20
15.776629 -22.514277 5.3321352 8
15.372343 -33.264912 3.2029736 23
14.75802 -21.115942 3.1543632 8
30.345312 -65.699493 1.2625943 1
21.244675 -30.450123 1.9440191 31
19.814915 -42.918854 -2.4838724 1
22.605295 -32.411854 -0.68915743 30
6.1706367 -13.375097 -1.8017129 4
13.336973 -19.118937 -2.0323348 1
3.8054993 -8.250845 -1.7561009 6
6.8449421 -9.8053932 -1.8906378 4
2.7468414 -5.9626198 -1.7484778 6
4.5458927 -6.4978495 -1.8199111 5
5.9774041 -15.983797 3.61677 19
16.691418 -28.026402 8.1123629 1
nan nan nan 0
15.253792 -25.65353 5.2511272 24
19.726488 -52.609032 3.9166174 18
16.698071 -28.126759 3.4342825 31
nan nan nan 0
19.109194 -32.21315 1.3067244 23
nan nan nan 0
33.416767 -56.351425 -2.2980525 16
4.3428783 -11.616018 -1.7336092 5
9.7679539 -16.474754 -2.0026276 5
2.8540196 -7.6580787 -1.7312467 6
5.3210974 -8.9729099 -1.833292 4
2.119833 -5.7153158 -1.7368366 6
3.6795206 -6.2010822 -1.787761 4
7.2104363 -15.752264 3.9851592 21
13.720893 -19.654629 6.4045343 30
17.44383 -38.096695 6.6158609 1
15.036354 -21.61837 5.107183 3
15.754805 -34.407562 3.3077784 16
15.586836 -22.467957 3.3484683 1
nan nan nan 0
20.996092 -30.318869 1.9309351 18
nan nan nan 0
23.031328 -33.269428 -0.70569372 28
6.1156607 -13.378499 -1.799279 4
nan nan nan 0
3.7715766 -8.2529154 -1.7537199 6
6.7980103 -9.8109665 -1.8871142 5
2.7240067 -5.9677773 -1.7471845 6
4.5245733 -6.5156775 -1.8204725 5
5.9774041 -15.983797 3.61677 19
16.691418 -28.026402 8.1123629 1
nan nan nan 0
15.253792 -25.65353 5.2511272 24
19.726488 -52.609032 3.9166174 18
16.698071 -28.126759 3.4342825 31
25.500912 -67.976372 0 1
33.570858 -56.588749 2.296474 3
nan nan nan 0
33.416767 -56.351425 -2.2980525 16
4.3428783 -11.616018 -1.7336092 5
9.7679491 -16.474756 -2.0026276 5
2.8540196 -7.6580787 -1.7312467 6
5.3195319 -8.9738379 -1.833292 4
2.119833 -5.7153158 -1.7368366 6
3.6784382 -6.2017241 -1.787761 4
7.2104363 -15.752264 3.9851592 21
13.717463 -19.657024 6.4045343 30
17.44383 -38.096695 6.6158609 1
17.367182 -24.977543 5.9011889 20
17.238384 -37.64798 3.6195779 6
15.582913 -22.470676 3.3484683 1
30.019056 -65.593636 1.2585366 1
20.990801 -30.322531 1.9309351 18
19.812441 -43.310143 -2.5025136 2
23.02552 -33.273449 -0.70569372 28
6.1156607 -13.378499 -1.799279 4
13.327774 -19.255737 -2.0416853 1
3.7701361 -8.2535734 -1.7537199 6
6.7962985 -9.8121529 -1.8871142 5
2.722965 -5.9682522 -1.7471845 6
4.5245733 -6.5156775 -1.8204725 5
5.9289513 -16.033123 3.6230025 12
15.94947 -27.005413 7.7995129 6
nan nan nan 0
15.173424 -25.732594 5.255898 22
nan nan nan 0
16.543146 -28.099926 3.4235685 25
nan nan nan 0
nan nan nan 0
nan nan nan 0
nan nan nan 0
4.2925544 -11.610956 -1.7304856 5
9.688592 -16.478298 -1.9987209 5
2.8208663 -7.6547194 -1.7281253 6
5.2816129 -8.984786 -1.8315555 5
2.1013486 -5.7298174 -1.7389026 7
3.658144 -6.2193456 -1.7889696 5
7.1566758 -15.787461 3.9874053 22
13.652199 -19.717094 6.4077649 27
17.281647 -38.110897 6.607276 3
14.870994 -21.556774 5.0790639 21
15.584366 -34.367538 3.298409 16
14.659114 -21.305313 3.1665325 23
nan nan nan 0
20.798939 -30.281969 1.9234772 18
nan nan nan 0
22.910488 -33.367916 -0.70591187 29
6.0553303 -13.375958 -1.7959323 4
nan nan nan 0
3.735816 -8.2583923 -1.7518153 5
6.7574897 -9.8329268 -1.8863312 4
2.7000787 -5.9759917 -1.746538 6
4.4965115 -6.5262012 -1.8187881 5
5.9289513 -16.033123 3.6230025 12
15.94947 -27.005413 7.7995129 6
nan nan nan 0
15.114639 -25.632917 5.2355142 24
19.553471 -52.734764 3.9206183 1
16.543146 -28.099926 3.4235685 25
nan nan nan 0
18.81996 -31.992256 1.2949457 1
nan nan nan 0
33.174538 -56.413227 -2.2955973 1
4.2925544 -11.610956 -1.7304856 5
9.688592 -16.478298 -1.9987209 5
2.8208663 -7.6547194 -1.7281253 6
5.2816129 -8.984786 -1.8315555 5
2.1013486 -5.7298174 -1.7389026 7
3.658144 -6.2193456 -1.7889696 5
7.1566758 -15.787461 3.9874053 22
13.652199 -19.717094 6.4077649 27
17.281647 -38.110897 6.607276 3
14.870994 -21.556774 5.0790639 21
17.397499 -38.366425 3.682548 1
14.659114 -21.305313 3.1665325 23
29.722725 -65.580276 1.2561805 1
20.798939 -30.281969 1.9234772 18
20.019272 -44.189777 -2.5491166 2
22.910488 -33.367916 -0.70591187 29
6.0553303 -13.375958 -1.7959323 4
13.326213 -19.405043 -2.0523405 2
3.735816 -8.2583923 -1.7518153 5
6.7574897 -9.8329268 -1.8863312 4
2.7000787 -5.9759917 -1.746538 6
4.4965115 -6.5262012 -1.8187881 5
5.8897409 -16.099657 3.6333895 21
15.812177 -26.987665 7.7783742 23
nan nan nan 0
15.002693 -25.64727 5.2277083 25
19.541874 -53.273331 3.9555836 1
15.728904 -26.931633 3.274354 16
nan nan nan 0
nan nan nan 0
nan nan nan 0
32.982456 -56.537315 -2.295948 9
4.2486 -11.616568 -1.7290972 5
9.6072063 -16.471212 -1.9937721 5
2.7958019 -7.6691146 -1.7291658 6
5.2502174 -9.0031672 -1.8315555 4
2.0805171 -5.7348585 -1.7382139 7
3.6400814 -6.2383614 -1.7907828 6
7.1204824 -15.854571 3.9980741 21
13.592867 -19.778559 6.4122887 32
17.41564 -38.765659 6.7102947 16
14.831714 -21.661196 5.091455 27
nan nan nan 0
14.657442 -21.4629 3.1823533 28
nan nan nan 0
21.887247 -32.105587 2.0345602 38
nan nan nan 0
23.04166 -33.811207 -0.71359104 31
6.0035267 -13.385693 -1.7944112 4
nan nan nan 0
3.7019489 -8.2601833 -1.7494344 5
6.6952825 -9.8156691 -1.8785008 4
2.6752574 -5.9765625 -1.7439514 6
4.4737039 -6.5418572 -1.8187881 5
5.8897409 -16.099657 3.6333895 21
15.812177 -26.987665 7.7783742 23
nan nan nan 0
15.002693 -25.64727 5.2277083 25
19.541874 -53.273331 3.9555836 1
15.728904 -26.931633 3.274354 16
nan nan nan 0
18.745955 -32.12249 1.2975633 1
nan nan nan 0
32.982456 -56.537315 -2.295948 9
