# .PCD v0.7 - Point Cloud Data file format
VERSION 0.7
FIELDS x y z intensity
SIZE 4 4 4 4
TYPE F F F F
COUNT 1 1 1 1
WIDTH 1518
HEIGHT 1
VIEWPOINT 0 0 0 1 0 0 0
POINTS 1518
DATA ascii
27.609282 -11.975464 3.6855667 4
nan nan nan 0
60.633301 -26.356472 3.4630702 1
35.577927 -23.653868 -2.2446878 26
29.690083 -12.914561 -0.56454629 32
13.115197 -8.7249556 -1.9270601 4
20.906981 -9.0912333 -1.9875391 5
7.9609137 -5.297266 -1.848477 5
10.76179 -4.6754117 -1.8550097 5
5.7130752 -3.8052793 -1.8286594 6
7.2766404 -3.1524098 -1.8199111 6
14.616272 -11.381326 3.9268236 21
22.644878 -11.8559 6.3548455 17
25.807701 -20.071005 4.5899286 18
18.688702 -9.8016291 3.7110915 20
28.531212 -22.173714 2.5180118 26
24.770964 -13.012871 2.9372497 36
nan nan nan 0
24.774742 -13.025884 0.97622615 14
nan nan nan 0
nan nan nan 0
3.7090514 -2.8852563 -0.65387779 4
17.355528 -9.1296272 -2.0505509 4
3.7854912 -2.9522166 -1.0138822 20
9.3746042 -4.9303637 -1.8615098 5
5.1040945 -3.9967117 -1.8477131 8
6.5179415 -3.4257901 -1.825837 6
24.069899 -16.123577 6.6698208 22
18.080574 -7.8592248 5.2659216 28
21.491329 -14.390655 4.0817451 4
19.359873 -8.4550877 4.09585 19
28.458174 -19.05632 2.9933639 6
27.315172 -11.967081 3.6521001 25
nan nan nan 0
nan nan nan 0
35.744007 -23.953676 -2.2607033 24
29.992708 -13.177075 -0.57122189 29
13.085191 -8.7743473 -1.9273643 4
21.174543 -9.2999401 -2.016243 6
7.9394064 -5.3250408 -1.8480008 5
10.749104 -4.7168074 -1.8557928 5
5.6970844 -3.8248463 -1.8280128 8
7.2605724 -3.1771078 -1.8187881 5
26.667665 -20.769836 7.1712179 1
22.644878 -11.8559 6.3548455 17
25.807701 -20.071005 4.5899286 18
18.688702 -9.8016291 3.7110915 20
28.531212 -22.173714 2.5180118 26
24.770964 -13.012871 2.9372497 36
58.108479 -45.14959 0 1
24.774742 -13.025884 0.97622615 14
nan nan nan 0
nan nan nan 0
3.7090514 -2.8852563 -0.65387779 4
17.355526 -9.129632 -2.0505509 4
3.7854912 -2.9522166 -1.0138822 20
9.373744 -4.9319997 -1.8615098 5
5.1040945 -3.9967117 -1.8477131 8
6.517343 -3.4269278 -1.825837 6
24.069899 -16.123577 6.6698208 22
18.079205 -7.86238 5.2659216 28
21.491329 -14.390655 4.0817451 4
19.358397 -8.4584665 4.09585 19
30.926868 -20.709591 3.2533059 4
27.313082 -11.971848 3.6521001 25
nan nan nan 0
60.476791 -26.564997 3.4599299 1
35.744007 -23.953676 -2.2607033 24
29.990408 -13.18231 -0.57122189 29
13.085191 -8.7743473 -1.9273643 4
21.172918 -9.3036366 -2.016243 6
7.9384766 -5.3264265 -1.8480008 5
10.748281 -4.7186832 -1.8557928 5
5.6964173 -3.8258407 -1.8280128 8
7.2605724 -3.1771078 -1.8187881 5
14.559139 -11.418691 3.9221492 24
23.180454 -12.239529 6.5173101 19
25.764765 -20.182344 4.5947995 20
18.63043 -9.854146 3.706321 7
28.408476 -22.237812 2.5140109 29
28.924063 -15.323279 3.4366345 6
nan nan nan 0
nan nan nan 0
nan nan nan 0
nan nan nan 0
3.6833775 -2.885956 -0.65110129 23
17.332336 -9.1948185 -2.0515928 4
3.7386513 -2.936681 -1.0039983 22
9.356472 -4.9646902 -1.8615098 5
5.1014285 -4.0234408 -1.8518451 8
6.5139155 -3.4542003 -1.8282546 6
23.995296 -16.195234 6.6647668 10
18.049437 -7.9244699 5.265275 29
21.522842 -14.520833 4.0973539 5
19.04356 -8.4002628 4.0353227 24
28.465803 -19.205688 3.0012078 4
23.138643 -10.239301 3.0980785 7
nan nan nan 0
nan nan nan 0
35.871212 -24.220808 -2.2740936 31
29.969347 -13.298064 -0.57170182 28
13.044204 -8.8130245 -1.9258431 4
21.14259 -9.3784952 -2.0164604 5
7.9137368 -5.3499804 -1.8465723 5
10.729487 -4.7551737 -1.8554013 4
5.687027 -3.8484092 -1.8293061 8
7.2538962 -3.2043991 -1.8199111 6
14.559139 -11.418691 3.9221492 24
23.180454 -12.239529 6.5173101 19
25.764765 -20.182344 4.5947995 20
20.780828 -10.991282 4.1348071 1
28.408476 -22.237812 2.5140109 29
28.924063 -15.323279 3.4366345 6
3.7684307 -2.9442685 0 1
nan nan nan 0
nan nan nan 0
nan nan nan 0
3.6833775 -2.885956 -0.65110129 23
17.33234 -9.1948128 -2.0515928 4
3.7386513 -2.936681 -1.0039983 22
9.357337 -4.963057 -1.8615098 5
5.1014285 -4.0234408 -1.8518451 8
6.5145183 -3.4530632 -1.8282546 6
23.995296 -16.195234 6.6647668 10
18.050819 -7.92132 5.265275 29
25.876701 -17.458654 4.927361 1
19.045025 -8.3969393 4.0353227 24
35.202152 -23.751123 3.7121809 3
27.466143 -12.147639 3.6779606 1
nan nan nan 0
60.372391 -26.758322 3.4590139 1
35.871212 -24.220808 -2.2740936 31
29.971666 -13.292834 -0.57170182 28
13.044204 -8.8130245 -1.9258431 4
21.144226 -9.3748055 -2.0164604 5
7.9146705 -5.348599 -1.8465723 5
10.730317 -4.7533016 -1.8554013 4
5.6876988 -3.8474166 -1.8293061 8
7.2538962 -3.2043991 -1.8199111 6
14.54614 -11.486615 3.928901 31
22.625757 -12.042811 6.3723602 22
25.703527 -20.272272 4.5958433 2
20.742094 -11.058975 4.1343737 6
28.260149 -22.273224 2.5074005 34
22.530251 -12.032351 2.6808937 3
3.7350833 -2.9381797 0 5
nan nan nan 0
nan nan nan 0
nan nan nan 0
3.6213419 -2.8567066 -0.64173043 31
17.282017 -9.2416887 -2.0492489 4
3.6119795 -2.8564317 -0.97226572 17
9.3538561 -5.0010223 -1.8641145 5
5.1049876 -4.0537977 -1.8580432 6
6.5030313 -3.474647 -1.8282546 7
23.941458 -16.274715 6.6647668 10
18.011202 -7.9752717 5.2613983 25
21.525631 -14.626825 4.1071095 4
18.712095 -8.3244543 3.9705057 28
27.9282 -18.978014 2.9510937 18
23.110893 -10.313964 3.0986872 19
nan nan nan 0
nan nan nan 0
35.858822 -24.385962 -2.2784257 31
30.267401 -13.54423 -0.5782029 31
13.029267 -8.8660059 -1.9279728 4
22.017921 -9.8494625 -2.1030076 7
7.9029765 -5.3789592 -1.8480008 5
10.716749 -4.7898645 -1.8557928 4
5.6868815 -3.874418 -1.8331858 5
7.2343268 -3.224474 -1.817665 6
14.54614 -11.486615 3.928901 31
22.625757 -12.042811 6.3723602 22
32.990273 -26.020805 5.9002433 3
20.742094 -11.058975 4.1343737 6
28.260149 -22.273224 2.5074005 34
28.853352 -15.408573 3.4342825 16
3.7350833 -2.9381797 0 5
nan nan nan 0
3.3349326 -2.6256537 -0.29363817 1
nan nan nan 0
3.6213419 -2.8567066 -0.64173043 31
17.282017 -9.2416887 -2.0492489 4
3.6119795 -2.8564317 -0.97226572 17
9.3538561 -5.0010223 -1.8641145 5
5.1049876 -4.0537977 -1.8580432 6
6.5030313 -3.474647 -1.8282546 7
26.479891 -18.000481 7.3722911 1
18.011202 -7.9752717 5.2613983 25
21.525631 -14.626825 4.1071095 4
18.712095 -8.3244543 3.9705057 28
33.405296 -22.700245 3.5304613 1
23.110893 -10.313964 3.0986872 19
nan nan nan 0
60.271931 -26.953281 3.45836 1
35.858822 -24.385962 -2.2784257 31
30.267401 -13.54423 -0.5782029 31
13.029267 -8.8660059 -1.9279728 4
22.017921 -9.8494625 -2.1030076 7
7.9029765 -5.3789592 -1.8480008 5
10.716749 -4.7898645 -1.8557928 4
5.6868815 -3.874418 -1.8331858 5
7.2343268 -3.224474 -1.817665 6
14.356694 -11.418551 3.8883913 25
22.592133 -12.126305 6.3747759 21
30.848536 -24.506351 5.5321302 2
20.657824 -11.106831 4.1252661 19
28.043556 -22.261625 2.4950495 30
22.457466 -12.094421 2.6772351 1
3.6797671 -2.9154525 0 6
nan nan nan 0
nan nan nan 0
nan nan nan 0
3.6035998 -2.8631623 -0.64034212 37
17.25841 -9.3066778 -2.0502908 4
3.559938 -2.8354673 -0.96082109 28
9.3450117 -5.0383148 -1.865851 5
3.7533247 -3.0004511 -1.3670185 9
6.4887276 -3.4961755 -1.8276502 5
24.475397 -16.762932 6.8298559 16
18.011919 -8.0508976 5.2697988 25
21.61503 -14.798137 4.1340351 6
18.720985 -8.4068031 3.9786079 26
27.917263 -19.113373 2.9569764 40
23.004608 -10.362991 3.0892558 19
nan nan nan 0
nan nan nan 0
36.352188 -24.907528 -2.3153143 31
30.174372 -13.629227 -0.57733023 31
13.008471 -8.9184484 -1.929494 4
22.090099 -9.974411 -2.1132281 7
7.8821292 -5.4051247 -1.8475246 5
10.695461 -4.8252149 -1.8550097 5
5.6673508 -3.8901441 -1.831246 7
7.2341385 -3.2546983 -1.8204725 6
14.356694 -11.418551 3.8883913 25
22.592133 -12.126305 6.3747759 21
32.916691 -26.149666 5.9033747 1
20.657824 -11.106831 4.1252661 19
28.043556 -22.261625 2.4950495 30
28.878199 -15.551629 3.4436903 16
3.6797671 -2.9154525 0 6
nan nan nan 0
nan nan nan 0
21.067495 -11.360225 -0.8387962 1
3.6035998 -2.8631623 -0.64034212 37
17.25841 -9.3066778 -2.0502908 4
3.559938 -2.8354673 -0.96082109 28
9.3450117 -5.0383148 -1.865851 5
3.7533247 -3.0004511 -1.3670185 9
6.4887276 -3.4961755 -1.8276502 5
24.475397 -16.762932 6.8298559 16
18.011919 -8.0508976 5.2697988 25
25.681879 -17.582766 4.9129224 1
18.720985 -8.4068031 3.9786079 26
33.734783 -23.09671 3.5738211 1
23.004608 -10.362991 3.0892558 19
nan nan nan 0
60.166092 -27.158369 3.4577055 1
36.352188 -24.907528 -2.3153143 31
30.174372 -13.629227 -0.57733023 31
13.008471 -8.9184484 -1.929494 4
22.090099 -9.974411 -2.1132281 7
7.8821292 -5.4051247 -1.8475246 5
10.695461 -4.8252149 -1.8550097 5
5.6673508 -3.8901441 -1.831246 7
7.2341385 -3.2546983 -1.8204725 6
14.200349 -11.375309 3.8567111 30
23.57592 -12.760448 6.6652799 1
30.679689 -24.547365 5.517169 2
20.792093 -11.272737 4.1599612 30
28.029955 -22.410784 2.5007901 55
28.959208 -15.725893 3.459892 13
3.6637096 -2.9235961 0 7
nan nan nan 0
3.5190263 -2.8109353 -0.31172964 28
nan nan nan 0
3.5646091 -2.8524942 -0.63513607 20
17.214895 -9.3609266 -2.0489883 4
3.5366769 -2.8371534 -0.95717967 31
9.3360214 -5.0756068 -1.8675876 5
3.7278638 -3.0014639 -1.3615091 24
6.4807477 -3.5211196 -1.828859 5
24.777637 -17.097328 6.9309311 9
18.095987 -8.1643486 5.3027554 23
25.602053 -17.659687 4.9094105 9
18.716116 -8.4832392 3.9838505 25
27.827827 -19.19515 2.9545796 4
nan nan nan 0
nan nan nan 0
nan nan nan 0
36.71701 -25.34631 -2.3441949 22
30.251715 -13.791485 -0.57972997 30
12.973177 -8.9609804 -1.9288855 4
22.202467 -10.118565 -2.1273625 6
7.8611951 -5.4312105 -1.8470485 5
10.687544 -4.8666086 -1.8565757 5
5.6557231 -3.9112771 -1.8318926 5
7.2160773 -3.2769125 -1.8187881 6
14.200349 -11.375309 3.8567111 30
23.57592 -12.760448 6.6652799 1
32.722767 -26.182423 5.8849339 16
20.792093 -11.272737 4.1599612 30
28.029955 -22.410784 2.5007901 55
28.959208 -15.725893 3.459892 13
3.6637096 -2.9235961 0 7
58.088493 -31.568056 2.3074675 1
3.5190263 -2.8109353 -0.31172964 28
nan nan nan 0
3.5646091 -2.8524942 -0.63513607 20
17.214895 -9.3609266 -2.0489883 4
3.5366769 -2.8371534 -0.95717967 31
9.3360214 -5.0756068 -1.8675876 5
3.7278638 -3.0014639 -1.3615091 24
6.4807477 -3.5211196 -1.828859 5
27.478397 -18.961151 7.6873078 13
18.095987 -8.1643486 5.3027554 23
25.602053 -17.659687 4.9094105 9
18.716116 -8.4832392 3.9838505 25
33.834354 -23.338778 3.5929954 6
nan nan nan 0
nan nan nan 0
59.952789 -27.314407 3.450902 1
36.71701 -25.34631 -2.3441949 22
30.251715 -13.791485 -0.57972997 30
12.973177 -8.9609804 -1.9288855 4
22.202467 -10.118565 -2.1273625 6
7.8611951 -5.4312105 -1.8470485 5
10.687544 -4.8666086 -1.8565757 5
5.6557231 -3.9112771 -1.8318926 5
7.2160773 -3.2769125 -1.8187881 6
14.221345 -11.477977 3.8738494 31
nan nan nan 0
32.557198 -26.246237 5.8724084 38
20.802481 -11.377217 4.1703701 19
27.85635 -22.439823 2.4926143 35
28.892653 -15.82715 3.4588468 6
3.6432347 -2.9291635 0 4
nan nan nan 0
3.4854026 -2.8050287 -0.30964214 36
nan nan nan 0
3.5445004 -2.8577614 -0.63340074 6
17.176111 -9.4215679 -2.0484676 4
3.5034502 -2.8316305 -0.95093715 34
9.3195143 -5.1109738 -1.8680217 5
3.7168379 -3.0151069 -1.3615091 28
6.4763088 -3.5495102 -1.8312764 5
24.674807 -17.160206 6.9197001 9
17.962639 -8.1835842 5.2723837 22
25.490524 -17.720984 4.9004354 13
19.195972 -8.785553 4.0929904 27
31.04739 -21.584549 3.3051639 16
22.708845 -10.425919 3.0594401 5
nan nan nan 0
nan nan nan 0
36.943554 -25.703152 -2.3646739 20
30.439392 -14.011985 -0.58431125 32
12.917847 -8.9928713 -1.9255388 4
22.287416 -10.256071 -2.1391051 6
7.8513045 -5.467 -1.8494294 5
10.66066 -4.9016252 -1.8550097 4
5.6433301 -3.9333615 -1.8325393 5
7.2084489 -3.3053668 -1.8199111 6
14.221345 -11.477977 3.8738494 31
nan nan nan 0
32.557198 -26.246237 5.8724084 38
20.802481 -11.377217 4.1703701 19
27.85635 -22.439823 2.4926143 35
31.590109 -17.304577 3.7821012 6
3.6432347 -2.9291635 0 4
58.066605 -31.83239 2.311219 1
3.4849129 -2.8056374 -0.30964214 36
nan nan nan 0
3.5445004 -2.8577614 -0.63340074 6
17.176107 -9.4215727 -2.0484676 4
3.5034502 -2.8316305 -0.95093715 34
9.3186207 -5.1125998 -1.8680217 5
3.7168379 -3.0151069 -1.3615091 28
6.4756894 -3.5506403 -1.8312764 5
24.674807 -17.160206 6.9197001 9
17.96121 -8.1867199 5.2723837 22
25.490524 -17.720984 4.9004354 13
19.194437 -8.7889023 4.0929904 27
33.873322 -23.549355 3.6062868 4
22.707026 -10.429881 3.0594401 5
54.795059 -38.109943 1.1644245 1
59.416557 -27.346119 3.4260426 1
36.943554 -25.703152 -2.3646739 20
30.436945 -14.017297 -0.58431125 32
12.917847 -8.9928713 -1.9255388 4
22.285624 -10.259961 -2.1391051 6
7.8503499 -5.4683704 -1.8494294 5
10.659804 -4.9034863 -1.8550097 4
5.6426435 -3.9343462 -1.8325393 5
7.2084489 -3.3053668 -1.8199111 6
14.11479 -11.473544 3.8556721 24
23.764544 -13.083243 6.7450023 22
32.451931 -26.348801 5.8699727 28
20.833794 -11.48899 4.1846819 1
28.66865 -23.259823 2.572634 28
28.754526 -15.882234 3.4489167 18
3.6232805 -2.9339883 0 5
nan nan nan 0
3.46542 -2.8099222 -0.30877239 38
nan nan nan 0
3.5095365 -2.8498049 -0.62888885 3
17.151817 -9.4862833 -2.0495093 4
3.4821746 -2.8345695 -0.94781595 36
9.3136463 -5.1522455 -1.8706264 5
nan nan nan 0
6.4717488 -3.5779157 -1.833694 5
24.610765 -17.243437 6.9185777 6
17.87328 -8.2221289 5.2549362 24
25.347612 -17.753185 4.8848267 13
19.161413 -8.8548203 4.0925136 24
30.75971 -21.544193 3.2825031 34
24.47617 -11.345723 3.3034406 10
nan nan nan 0
nan nan nan 0
37.113235 -26.013947 -2.381346 23
30.449041 -14.151895 -0.58548933 31
12.896535 -9.0450344 -1.9270601 4
22.371651 -10.394335 -2.1508477 6
7.8332224 -5.4971499 -1.8499055 5
10.656063 -4.9468989 -1.8573588 5
5.6288762 -3.9540186 -1.8325393 6
7.1946545 -3.3294866 -1.8193494 6
14.11479 -11.473544 3.8556721 24
23.764544 -13.083243 6.7450023 22
32.451931 -26.348801 5.8699727 28
23.173161 -12.778793 4.6552362 1
28.66865 -23.259823 2.572634 28
28.754526 -15.882234 3.4489167 18
3.6232805 -2.9339883 0 5
58.022926 -32.072353 2.3139238 1
3.4659104 -2.8093174 -0.30877239 38
21.509464 -11.895792 -0.86141896 1
3.5095365 -2.8498049 -0.62888885 3
17.151819 -9.4862776 -2.0495093 4
3.4821746 -2.8345695 -0.94781595 36
9.3145456 -5.1506195 -1.8706264 5
nan nan nan 0
6.4723735 -3.5767858 -1.833694 5
24.610765 -17.243437 6.9185777 6
17.874712 -8.2190084 5.2549362 24
25.347612 -17.753185 4.8848267 13
19.162958 -8.8514767 4.0925136 24
30.75971 -21.544193 3.2825031 34
24.478151 -11.34145 3.3034406 10
54.602329 -38.259384 1.1631593 1
59.230434 -27.498852 3.420547 1
37.113235 -26.013947 -2.381346 23
30.451508 -14.146581 -0.58548933 31
12.896535 -9.0450344 -1.9270601 4
22.373465 -10.390429 -2.1508477 6
7.8341818 -5.4957824 -1.8499055 5
10.656926 -4.9450388 -1.8573588 5
5.6295657 -3.9530363 -1.8325393 6
7.1946545 -3.3294866 -1.8193494 6
14.089787 -11.535141 3.859827 29
23.843874 -13.235574 6.7806358 14
32.308022 -26.4196 5.860579 18
23.04664 -12.814147 4.6387563 4
28.747557 -23.490749 2.5870724 16
25.65341 -14.28671 3.0825443 19
3.626569 -2.9576902 0 4
nan nan nan 0
3.4560831 -2.8213985 -0.30877239 39
nan nan nan 0
3.5129733 -2.8730223 -0.63131833 32
17.127291 -9.5509348 -2.0505509 4
3.4628115 -2.8389471 -0.94521493 36
9.2922087 -5.1807051 -1.8697582 5
3.4824386 -2.8651838 -1.2823114 28
6.4577293 -3.5981767 -1.8330896 6
nan nan nan 0
17.902878 -8.3077717 5.2717376 21
nan nan nan 0
19.169764 -8.9359322 4.100616 24
30.775888 -21.716053 3.2923081 43
24.436167 -11.425776 3.3031366 6
nan nan nan 0
nan nan nan 0
37.419868 -26.42417 -2.4069448 20
30.768612 -14.424629 -0.59255761 28
12.899332 -9.1143427 -1.9322321 4
19.948652 -9.3496532 -1.9205629 6
7.8269744 -5.5315962 -1.8527625 5
10.64631 -4.9853473 -1.8585333 5
5.6295314 -3.982429 -1.8370657 6
7.1807814 -3.3535509 -1.8187881 6
14.089787 -11.535141 3.859827 29
23.843874 -13.235574 6.7806358 14
32.308022 -26.4196 5.860579 18
28.118757 -15.633773 5.660965 2
28.747557 -23.490749 2.5870724 16
25.65341 -14.28671 3.0825443 19
3.626569 -2.9576902 0 4
57.897522 -32.267399 2.3134003 1
3.4560831 -2.8213985 -0.30877239 39
21.570377 -12.027983 -0.86554015 1
3.5129733 -2.8730223 -0.63131833 32
17.127291 -9.5509348 -2.0505509 4
3.4628115 -2.8389471 -0.94521493 36
9.2922087 -5.1807051 -1.8697582 5
3.4824386 -2.8651838 -1.2823114 28
6.4577293 -3.5981767 -1.8330896 6
nan nan nan 0
17.902878 -8.3077717 5.2717376 21
nan nan nan 0
19.169764 -8.9359322 4.100616 24
30.775888 -21.716053 3.2923081 43
30.991371 -14.489486 4.1903009 1
54.537872 -38.49876 1.1646427 1
59.654064 -27.949013 3.4506402 1
37.419868 -26.42417 -2.4069448 20
30.768612 -14.424629 -0.59255761 28
12.899332 -9.1143427 -1.9322321 4
22.467869 -10.52974 -2.16346 1
7.8269744 -5.5315962 -1.8527625 5
10.64631 -4.9853473 -1.8585333 5
5.6295314 -3.982429 -1.8370657 6
7.1807814 -3.3535509 -1.8187881 6
14.028688 -11.567136 3.8541141 24
22.271141 -12.464605 6.3451819 10
32.104774 -26.44092 5.8403988 32
22.935188 -12.857198 4.6253114 2
28.744329 -23.655937 2.5942044 22
25.703114 -14.432158 3.0945652 7
3.6162224 -2.9703314 0 6
nan nan nan 0
3.453913 -2.839788 -0.30946818 37
nan nan nan 0
3.4933753 -2.8773882 -0.629583 41
17.08301 -9.6045694 -2.0492489 5
3.4509966 -2.8494585 -0.94469476 39
9.2762146 -5.2143154 -1.8701923 5
3.4594727 -2.8665767 -1.2774907 22
6.4514751 -3.624259 -1.8349026 5
27.449804 -19.519962 7.7558146 23
17.851898 -8.3599758 5.265275 23
28.26408 -20.091654 5.4744549 2
19.100698 -8.9850416 4.0925136 26
28.341257 -20.14653 3.0391207 2
24.447752 -11.535349 3.3101339 16
nan nan nan 0
nan nan nan 0
37.667118 -26.796322 -2.4288678 20
30.842356 -14.590716 -0.59495735 28
12.887652 -9.173707 -1.9352745 4
19.780798 -9.3553696 -1.9075155 5
7.8076172 -5.5588841 -1.8527625 5
10.62661 -5.0214252 -1.8581419 5
5.6096964 -3.9978497 -1.8351258 6
7.1756444 -3.3817081 -1.8204725 6
14.028688 -11.567136 3.8541141 24
23.945724 -13.401649 6.8229132 1
32.104774 -26.44092 5.8403988 32
28.074753 -15.737849 5.6631336 9
28.744329 -23.655937 2.5942044 22
25.705633 -14.427672 3.0945652 7
3.6162224 -2.9703314 0 6
57.82375 -32.491333 2.3149707 1
3.453913 -2.839788 -0.30946818 37
21.741699 -12.223177 -0.87413329 1
3.4938774 -2.8767784 -0.629583 41
17.08301 -9.6045694 -2.0492489 5
3.4514942 -2.8488562 -0.94469476 39
9.2762146 -5.2143154 -1.8701923 5
3.4599731 -2.8659728 -1.2774907 22
6.4514751 -3.624259 -1.8349026 5
27.453211 -19.515171 7.7558146 23
17.851898 -8.3599758 5.265275 23
28.267586 -20.08672 5.4744549 2
19.100698 -8.9850416 4.0925136 26
30.711828 -21.823761 3.2931798 18
24.447752 -11.535349 3.3101339 16
54.642155 -38.844513 1.1696166 1
59.639664 -28.196556 3.4554815 1
37.671795 -26.789747 -2.4288678 20
30.844896 -14.585339 -0.59495735 28
12.889253 -9.1714573 -1.9352745 4
22.556681 -10.662707 -2.17542 1
7.8076172 -5.5588841 -1.8527625 5
10.627486 -5.0195708 -1.8581419 5
5.6103945 -3.99687 -1.8351258 6
7.1762338 -3.3804557 -1.8204725 6
12.534155 -10.404288 3.4521356 21
23.958204 -13.513156 6.8392196 9
31.950216 -26.491922 5.8282208 31
24.519529 -13.852255 4.954483 6
28.757895 -23.827513 2.6025543 9
28.254667 -15.981561 3.4081504 18
3.5813253 -2.9615729 0 8
nan nan nan 0
3.4444768 -2.8512259 -0.30946818 38
nan nan nan 0
3.4805088 -2.8851848 -0.62888885 45
17.066212 -9.6697464 -2.0510721 4
3.4401486 -2.8587215 -0.94417453 39
9.2631569 -5.2474747 -1.8710605 5
3.4652038 -2.8897579 -1.2830001 24
6.4394217 -3.645633 -1.8349026 6
28.347055 -20.292473 8.0275936 2
17.904882 -8.4572744 5.289185 23
24.383448 -17.448385 4.7326388 3
nan nan nan 0
28.162386 -20.152851 3.0267012 2
21.366346 -10.168821 2.8969758 4
nan nan nan 0
nan nan nan 0
37.905476 -27.145655 -2.4497409 16
31.046812 -14.80695 -0.59980041 27
12.830532 -9.1939116 -1.9310151 4
19.679365 -9.3831816 -1.900557 5
7.793129 -5.587605 -1.8537148 5
10.617471 -5.0579681 -1.8593163 5
5.6029949 -4.0196776 -1.8370657 7
7.1649847 -3.4042342 -1.8204725 6
13.997777 -11.619843 3.8561916 1
27.637121 -15.587811 7.8907104 1
31.950216 -26.491922 5.8282208 31
28.035269 -15.838127 5.6657357 1
31.394365 -26.012468 2.8413959 6
28.254667 -15.981561 3.4081504 18
3.5813253 -2.9615729 0 8
57.746124 -32.700138 2.3161924 1
3.4444768 -2.8512259 -0.30946818 38
21.390179 -12.119112 -0.86159432 1
3.4805088 -2.8851848 -0.62888885 45
17.066212 -9.6697464 -2.0510721 4
3.4401486 -2.8587215 -0.94417453 39
9.2631569 -5.2474747 -1.8710605 5
3.4652038 -2.8897579 -1.2830001 24
6.4394217 -3.645633 -1.8349026 6
28.347055 -20.292473 8.0275936 2
17.904882 -8.4572744 5.289185 23
28.146606 -20.141548 5.4639192 2
nan nan nan 0
30.59676 -21.895048 3.288604 22
25.7785 -12.267642 3.4960248 4
54.539463 -39.044418 1.1701838 1
59.475979 -28.360867 3.4514256 1
37.905476 -27.145655 -2.4497409 16
31.046812 -14.80695 -0.59980041 27
12.830532 -9.1939116 -1.9310151 4
22.649351 -10.798519 -2.187815 1
7.793129 -5.587605 -1.8537148 5
10.617471 -5.0579681 -1.8593163 5
5.6029949 -4.0196776 -1.8370657 7
7.1649847 -3.4042342 -1.8204725 6
12.503386 -10.452683 3.4536934 21
27.709076 -15.756129 7.9269481 26
31.83285 -26.582657 5.8236976 20
27.855724 -15.865227 5.6405816 28
28.716667 -23.96291 2.6063814 3
24.637037 -14.049373 2.977232 7
3.5824833 -2.9836662 0 8
nan nan nan 0
3.4421599 -2.8696268 -0.31016403 35
21.879297 -12.497264 -0.8830772 6
3.4742148 -2.9004936 -0.629583 44
17.036669 -9.7317247 -2.0515928 4
3.4301488 -2.8707123 -0.94417453 39
9.2405062 -5.2773352 -1.8701923 4
3.4698067 -2.9142156 -1.2885096 27
6.4287643 -3.6692905 -1.835507 5
nan nan nan 0
17.818563 -8.4927197 5.2723837 19
23.991888 -17.295113 4.668252 6
19.647888 -9.4061394 4.223577 27
30.301962 -21.844418 3.2650719 27
21.341906 -10.248712 2.8984969 8
nan nan nan 0
nan nan nan 0
31.426901 -22.672125 -2.0358279 23
30.958895 -14.897896 -0.59910232 30
12.854692 -9.279315 -1.9395339 4
19.781164 -9.516573 -1.9136043 5
7.7656207 -5.6090245 -1.8518102 5
10.595299 -5.0928612 -1.8585333 5
5.5908871 -4.040626 -1.8377123 6
7.1508617 -3.4281723 -1.8199111 6
12.503386 -10.452683 3.4536934 21
27.709076 -15.756129 7.9269481 26
31.83285 -26.582657 5.8236976 20
27.855724 -15.865227 5.6405816 28
30.709827 -25.626497 2.7874694 18
24.634586 -14.053673 2.977232 7
3.5824833 -2.9836662 0 8
57.659832 -32.917614 2.3173265 1
3.4421599 -2.8696268 -0.31016403 35
33.762161 -19.283379 -1.3633288 58
3.4737084 -2.9010999 -0.629583 44
17.036669 -9.7317247 -2.0515928 4
3.4296477 -2.8713112 -0.94417453 39
9.2405062 -5.2773352 -1.8701923 4
3.4692981 -2.9148209 -1.2885096 27
6.4287643 -3.6692905 -1.835507 5
nan nan nan 0
17.818563 -8.4927197 5.2723837 19
28.671431 -20.67647 5.580596 2
19.647888 -9.4061394 4.223577 27
30.298149 -21.849703 3.2650719 27
28.829393 -13.842544 3.9167888 4
54.576401 -39.374214 1.1740669 1
59.369854 -28.565054 3.4510326 1
38.172131 -27.548859 -2.4735019 1
30.956299 -14.903294 -0.59910232 30
12.853073 -9.281558 -1.9395339 4
22.721834 -10.935444 -2.1986878 1
7.7656207 -5.6090245 -1.8518102 5
10.59441 -5.0947104 -1.8585333 5
5.5901818 -4.0416021 -1.8377123 6
7.1502628 -3.4294205 -1.8199111 6
12.423852 -10.463773 3.4422677 21
27.615366 -15.837067 7.9166808 24
28.641895 -24.096189 5.2555242 4
23.644764 -13.582245 4.7970533 3
28.636282 -24.074419 2.6070771 38
24.593685 -14.150066 2.9785385 5
3.5734372 -2.998385 0 1
nan nan nan 0
3.4449766 -2.8934641 -0.3113817 27
nan nan nan 0
3.4630523 -2.9138122 -0.629583 41
16.923321 -9.7494278 -2.0422165 5
3.4172328 -2.8822837 -0.9436543 37
9.2381725 -5.3209953 -1.8736653 4
3.4659228 -2.9337347 -1.2912643 28
6.4152722 -3.6928284 -1.835507 6
nan nan nan 0
17.817787 -8.5726223 5.2814302 20
24.033167 -17.465506 4.6893239 29
19.584553 -9.4642143 4.2173815 23
30.457598 -22.13485 3.2910008 70
20.158606 -9.7718287 2.7424219 5
nan nan nan 0
30.02429 -14.584053 1.7474976 2
31.289139 -22.755915 -2.0325458 73
31.162277 -15.143353 -0.60416359 30
3.658494 -2.6609097 -0.55037129 4
19.760159 -9.6000729 -1.9151264 2
7.7529464 -5.6432281 -1.8537148 5
10.573444 -5.1324296 -1.8581419 5
5.587039 -4.0705986 -1.8415921 6
7.1420321 -3.4577248 -1.8210342 6
12.423852 -10.463773 3.4422677 21
27.615366 -15.837067 7.9166808 24
31.87538 -26.817106 5.8494449 2
28.960974 -16.635498 5.8769431 13
28.636282 -24.074419 2.6070771 38
24.593685 -14.150066 2.9785385 5
3.5734372 -2.998385 0 1
57.577774 -33.151165 2.318897 1
3.4444716 -2.8940651 -0.3113817 27
33.264748 -19.161345 -1.3460548 1
3.4630523 -2.9138122 -0.629583 41
16.923317 -9.7494335 -2.0422165 5
3.4172328 -2.8822837 -0.9436543 37
9.2372437 -5.322608 -1.8736653 4
3.4659228 -2.9337347 -1.2912643 28
6.4146276 -3.693948 -1.835507 6
27.671459 -20.117214 7.8776655 1
19.463762 -9.3682547 5.770607 1
24.033167 -17.465506 4.6893239 29
19.582901 -9.4676313 4.2173815 23
30.457598 -22.13485 3.2910008 70
28.617495 -13.876294 3.8951881 4
54.963436 -39.960579 1.185542 1
59.277702 -28.801537 3.4520795 1
38.442398 -27.958784 -2.4976566 1
31.159632 -15.148791 -0.60416359 30
12.885174 -9.3767948 -1.949574 3
22.854412 -11.107492 -2.2156494 3
7.7519612 -5.6445813 -1.8537148 5
10.572548 -5.134275 -1.8581419 5
5.5863285 -4.0715737 -1.8415921 6
7.1420321 -3.4577248 -1.8210342 6
12.465559 -10.573534 3.4640803 23
27.543112 -15.923653 7.911849 24
28.610497 -24.240839 5.2652659 3
23.620649 -13.678268 4.8018241 8
28.525427 -24.151669 2.6046419 40
24.473166 -14.194668 2.9699149 3
nan nan nan 0
nan nan nan 0
3.4457622 -2.9157474 -0.31242543 35
33.647076 -19.53828 -1.3642933 85
3.4585223 -2.9306901 -0.63062418 39
16.902086 -9.815938 -2.0437794 5
3.4239109 -2.908458 -0.94833618 28
9.2228661 -5.3572917 -1.8745335 5
3.462971 -2.9520583 -1.294019 32
6.4121857 -3.7224035 -1.8385291 6
14.452872 -10.583611 4.1210485 8
19.396181 -9.4192657 5.7602682 29
24.017879 -17.58284 4.6982989 27
19.487965 -9.5058193 4.2040372 28
30.179203 -22.093906 3.2692118 28
20.249716 -9.9077845 2.7597635 40
nan nan nan 0
nan nan nan 0
31.217573 -22.870897 -2.0330708 16
31.241222 -15.323493 -0.60678142 31
3.6171656 -2.6501877 -0.54550344 7
19.738258 -9.6790094 -1.9164311 3
7.7262745 -5.6672506 -1.8522862 5
10.563433 -5.1754909 -1.859708 5
5.574029 -4.0924788 -1.8422387 7
7.1321082 -3.4837019 -1.8215957 5
12.465559 -10.573534 3.4640803 23
27.543112 -15.923653 7.911849 24
31.719254 -26.875391 5.8379631 13
29.292654 -16.962248 5.9563084 6
28.525427 -24.151669 2.6046419 40
31.200905 -18.096172 3.7873273 9
nan nan nan 0
57.504917 -33.377029 2.3206418 1
3.4462712 -2.9151459 -0.31242543 35
33.647076 -19.53828 -1.3642933 85
3.4585223 -2.9306901 -0.63062418 39
16.90209 -9.8159323 -2.0437794 5
3.4239109 -2.908458 -0.94833618 28
9.2238007 -5.3556824 -1.8745335 5
3.462971 -2.9520583 -1.294019 32
6.4128356 -3.7212844 -1.8385291 6
27.563728 -20.186337 7.8669968 6
19.397825 -9.4158792 5.7602682 29
24.017879 -17.58284 4.6982989 27
19.489624 -9.5024176 4.2040372 28
30.179203 -22.093906 3.2692118 28
20.251446 -9.9042511 2.7597635 40
31.00581 -22.707428 0.67021602 1
29.829712 -14.618476 1.7391238 1
38.757404 -28.395287 -2.5245681 2
31.243896 -15.318041 -0.60678142 31
13.2726 -9.729846 -2.0134645 1
23.007563 -11.276352 -2.234133 2
7.7272635 -5.6659017 -1.8522862 5
10.564336 -5.1736474 -1.859708 5
5.5747428 -4.0915065 -1.8422387 7
7.1321082 -3.4837019 -1.8215957 5
11.396677 -9.7315941 3.1753206 20
27.393726 -15.958735 7.8840666 26
28.511118 -24.319513 5.2617865 1
23.65597 -13.803667 4.8183041 24
28.466057 -24.263929 2.6065555 36
24.363708 -14.239369 2.9623368 7
nan nan nan 0
nan nan nan 0
3.4574552 -2.9443638 -0.31433898 32
34.347664 -20.097647 -1.3954216 80
3.4600768 -2.9517939 -0.63270658 36
16.865152 -9.8694172 -2.0432584 5
3.4309592 -2.9341154 -0.95301801 14
9.2059898 -5.38624 -1.8745335 5
3.4604518 -2.9697931 -1.2967737 31
6.4025545 -3.7437534 -1.8391334 6
14.445145 -10.651723 4.1289101 23
19.420729 -9.5066881 5.7764235 28
23.917702 -17.631618 4.6901045 23
19.484438 -9.5799847 4.2097564 26
25.886131 -19.08288 2.8105547 9
20.16062 -9.9428272 2.7518532 23
31.187832 -23.000029 0.6758008 79
31.050207 -15.344284 1.8133099 1
38.932224 -28.722271 -2.5421591 13
31.354273 -15.501306 -0.60992289 32
3.6223309 -2.6724854 -0.54763311 9
19.707754 -9.7409706 -1.9164311 4
7.7143545 -5.6958694 -1.8537148 5
10.544907 -5.2075586 -1.8593163 5
5.5553188 -4.1056623 -1.8402988 7
7.1314464 -3.5127094 -1.8244032 5
11.396677 -9.7315941 3.1753206 20
29.087505 -16.945328 8.3720646 1
31.59417 -26.949898 5.8313522 18
29.444653 -17.180882 5.9988098 1
28.466057 -24.263929 2.6065555 36
31.500284 -18.402271 3.8307068 1
nan nan nan 0
57.471565 -33.612949 2.3237829 1
3.4574552 -2.9443638 -0.31433898 32
34.347664 -20.097647 -1.3954216 80
3.4605918 -2.9511898 -0.63270658 36
16.865152 -9.8694172 -2.0432584 5
3.4314713 -2.9335163 -0.95301801 14
9.2059898 -5.38624 -1.8745335 5
3.4609699 -2.9691892 -1.2967737 31
6.4025545 -3.7437534 -1.8391334 6
14.447002 -10.649202 4.1289101 23
19.420729 -9.5066881 5.7764235 28
23.92078 -17.627443 4.6901045 23
19.484438 -9.5799847 4.2097564 26
29.674595 -21.867981 3.2219298 3
20.16062 -9.9428272 2.7518532 23
31.191843 -22.994587 0.6758008 79
59.165962 -29.233849 3.4567895 1
38.947285 -28.722885 -2.5428154 13
31.356976 -15.495837 -0.60992289 32
3.6227975 -2.6718528 -0.54763311 9
19.709454 -9.7375317 -1.9164311 4
7.7143545 -5.6958694 -1.8537148 5
10.545815 -5.2057176 -1.8593163 5
5.5560355 -4.1046925 -1.8402988 7
7.1320591 -3.5114648 -1.8244032 5
11.368199 -9.776103 3.1768787 19
21.758526 -12.778268 6.2733111 9
28.55374 -24.528597 5.2854462 27
23.819872 -14.01097 4.8616729 26
28.333883 -24.322531 2.6022065 40
24.314213 -14.318821 2.9620752 3
nan nan nan 0
nan nan nan 0
3.4547224 -2.9629157 -0.31503478 26
34.793797 -20.522024 -1.416466 63
3.4765429 -2.9858584 -0.63756555 21
16.903418 -9.9711714 -2.052114 5
3.4712043 -2.9885995 -0.96706361 1
9.1892529 -5.4195919 -1.8749676 5
3.4614868 -2.9906893 -1.3009057 29
6.3957176 -3.7697735 -1.8409466 6
14.421476 -10.708281 4.1322789 28
19.450228 -9.6054192 5.7951632 27
23.910652 -17.749105 4.7002501 20
19.360729 -9.6032467 4.1902156 26
25.826712 -19.171583 2.8109906 35
19.832506 -9.8672972 2.7116935 7
31.157543 -23.137604 0.67680424 3
nan nan nan 0
39.143379 -29.079012 -2.5622442 13
31.55102 -15.728958 -0.61476594 34
3.5915437 -2.6681964 -0.54428643 10
19.753365 -9.8451376 -1.924042 3
7.7003322 -5.7271576 -1.8551433 5
10.536423 -5.2468977 -1.8608825 4
5.545547 -4.1269464 -1.8415921 7
7.1175766 -3.5352566 -1.8238418 5
11.368199 -9.776103 3.1768787 19
27.362959 -16.069 7.891315 1
30.369509 -26.088751 5.6218972 1
23.819872 -14.01097 4.8616729 26
28.333883 -24.322531 2.6022065 40
27.006691 -15.910529 3.2908175 4
nan nan nan 0
57.36895 -33.822239 2.3243937 1
3.4542053 -2.9635186 -0.31503478 26
34.793797 -20.522024 -1.416466 63
3.4760218 -2.9864652 -0.63756555 21
16.903414 -9.9711761 -2.052114 5
6.7234912 -5.7959642 -1.8810662 2
9.1883068 -5.4211955 -1.8749676 5
3.4609649 -2.9912934 -1.3009057 29
6.3950596 -3.7708893 -1.8409466 6
14.419607 -10.710798 4.1322789 28
19.448551 -9.6088133 5.7951632 27
23.907555 -17.753279 4.7002501 20
19.359053 -9.6066256 4.1902156 26
29.57625 -21.96323 3.219969 3
27.524433 -13.698292 3.7652774 3
55.901398 -41.529152 1.2149491 1
59.038307 -29.440481 3.4556122 1
39.138309 -29.085842 -2.5622442 13
31.54553 -15.739965 -0.61476594 34
3.591078 -2.6688232 -0.54428643 10
19.749929 -9.8520327 -1.924042 3
7.6993327 -5.7285023 -1.8551433 5
10.534592 -5.2505751 -1.8608825 4
5.5441065 -4.1288819 -1.8415921 7
7.1169591 -3.536499 -1.8238418 5
12.28763 -10.645827 3.4453838 1
21.747034 -12.878945 6.2835789 26
30.19507 -26.131836 5.6072841 28
23.8573 -14.150928 4.8798881 26
28.269068 -24.447426 2.6044679 45
26.894753 -15.977663 3.2842844 34
nan nan nan 0
nan nan nan 0
3.4772563 -3.0055447 -0.31816599 9
34.976036 -20.802662 -1.4269881 73
3.5024626 -3.0316253 -0.64450693 17
16.821877 -10.006375 -2.0466444 5
6.6302295 -5.7580023 -1.8607782 7
9.1768408 -5.4598703 -1.8767041 5
3.4499779 -3.0039582 -1.3009057 20
6.3749399 -3.7905858 -1.8391334 6
14.124781 -10.572319 4.0587192 23
19.424007 -9.6854172 5.7983942 22
23.498322 -17.583345 4.6323514 10
19.472944 -9.7522125 4.2226243 23
25.738951 -19.260168 2.8094654 13
20.377701 -10.236198 2.7917085 5
nan nan nan 0
nan nan nan 0
39.425102 -29.523916 -2.5881057 16
31.507725 -15.865594 -0.61515862 34
3.5693583 -2.6730385 -0.54246104 21
19.738157 -9.9366665 -1.926434 3
7.6723952 -5.752265 -1.8537148 5
10.521894 -5.2924771 -1.862057 4
5.5231423 -4.144825 -1.8396521 7
7.1126628 -3.5669236 -1.826088 5
12.28763 -10.645827 3.4453838 1
21.747034 -12.878945 6.2835789 26
30.19507 -26.131836 5.6072841 28
23.8573 -14.150928 4.8798881 26
28.269068 -24.447426 2.6044679 45
28.780146 -17.09757 3.5147696 1
nan nan nan 0
57.236012 -34.027172 2.3240447 1
3.4772563 -3.0055447 -0.31816599 9
34.976036 -20.802662 -1.4269881 73
3.5024626 -3.0316253 -0.64450693 17
16.821877 -10.006375 -2.0466444 5
6.6302295 -5.7580023 -1.8607782 7
9.1768408 -5.4598703 -1.8767041 5
3.4499779 -3.0039582 -1.3009057 20
6.3749399 -3.7905858 -1.8391334 6
14.124781 -10.572319 4.0587192 23
19.424007 -9.6854172 5.7983942 22
23.498322 -17.583345 4.6323514 10
19.472944 -9.7522125 4.2226243 23
29.256277 -21.89242 3.1938224 9
28.545145 -14.336853 3.9122255 18
55.990932 -41.915024 1.2202286 1
58.950077 -29.666769 3.4567895 1
39.425102 -29.523916 -2.5881057 16
31.507725 -15.865594 -0.61515862 34
3.5693583 -2.6730385 -0.54246104 21
19.738157 -9.9366665 -1.926434 3
7.6723952 -5.752265 -1.8537148 5
10.521894 -5.2924771 -1.862057 4
5.5231423 -4.144825 -1.8396521 7
7.1126628 -3.5669236 -1.826088 5
12.252236 -10.690263 3.4459031 17
21.781103 -13.002021 6.306529 31
30.099936 -26.233822 5.6065879 32
23.850027 -14.259385 4.8885622 24
28.28134 -24.631136 2.6135135 18
26.759888 -16.024189 3.2746153 27
nan nan nan 0
nan nan nan 0
3.5362902 -3.0783124 -0.3246024 13
35.008213 -20.987566 -1.4312848 73
3.5515327 -3.0959446 -0.65561312 12
16.80817 -10.077816 -2.0492489 5
6.6248088 -5.7939959 -1.8649397 7
9.1619492 -5.4944015 -1.8775724 5
3.4593318 -3.0334308 -1.3084812 2
6.3658314 -3.8153081 -1.8403422 6
13.943856 -10.513019 4.0171661 19
19.396555 -9.7564154 5.8003325 7
23.137077 -17.439323 4.5730371 17
19.416876 -9.8090658 4.2178583 30
25.62781 -19.316912 2.8046718 2
19.912388 -10.089768 2.732686 32
nan nan nan 0
nan nan nan 0
39.664608 -29.919958 -2.6106851 18
31.815439 -16.159946 -0.62227052 29
3.5560448 -2.6824913 -0.54185253 27
19.765537 -10.037066 -1.9325228 3
7.6561852 -5.781971 -1.8546672 5
10.514369 -5.3347549 -1.8640147 4
5.5086408 -4.1640787 -1.8396521 9
7.0892959 -3.5862372 -1.8232801 6
12.252236 -10.690263 3.4459031 17
21.781103 -13.002021 6.306529 31
30.099936 -26.233822 5.6065879 32
23.850027 -14.259385 4.8885622 24
28.28134 -24.631136 2.6135135 18
28.538967 -17.089367 3.492557 1
57.392323 -49.972893 0 2
57.091164 -34.211342 2.3229976 1
3.5368276 -3.0776949 -0.3246024 13
35.008213 -20.987566 -1.4312848 73
3.5515327 -3.0959446 -0.65561312 12
16.808174 -10.07781 -2.0492489 5
6.6248088 -5.7939959 -1.8649397 7
9.1629086 -5.4928021 -1.8775724 5
4.9470587 -4.3404307 -1.8759488 7
6.366497 -3.8141973 -1.8403422 6
13.943856 -10.513019 4.0171661 19
24.48876 -12.311059 7.3247294 1
23.137077 -17.439323 4.5730371 17
19.418589 -9.8056765 4.2178583 30
29.191614 -22.003407 3.1951296 18
19.914148 -10.086293 2.732686 32
56.375156 -42.510544 1.2318344 1
58.78904 -29.830465 3.4531262 1
39.664608 -29.919958 -2.6106851 18
31.818258 -16.154394 -0.62227052 29
3.5560448 -2.6824913 -0.54185253 27
19.767288 -10.033616 -1.9325228 3
7.6571946 -5.7806339 -1.8546672 5
10.5153 -5.3329196 -1.8640147 4
5.5093675 -4.1631174 -1.8396521 9
7.0892959 -3.5862372 -1.8232801 6
12.253457 -10.76312 3.45629 6
21.725393 -13.066677 6.3029051 31
30.038828 -26.356354 5.6114588 3
23.63599 -14.238045 4.8543005 19
nan nan nan 0
23.385456 -14.109396 2.8669543 7
nan nan nan 0
nan nan nan 0
3.5472212 -3.107502 -0.32651591 3
34.016655 -20.546839 -1.3934925 63
nan nan nan 0
16.781048 -10.137351 -2.0500302 5
6.5780411 -5.7916813 -1.8571367 10
9.1551809 -5.5295196 -1.879743 5
4.909235 -4.3361139 -1.8669959 9
6.3517365 -3.8340349 -1.8397378 6
13.769225 -10.45313 3.9767361 23
24.549051 -12.443501 7.3551011 9
22.959139 -17.424881 4.5492334 25
19.27879 -9.8154783 4.1945047 27
25.60527 -19.433413 2.8092473 2
19.796604 -10.109407 2.7211249 31
nan nan nan 0
nan nan nan 0
39.974709 -30.362408 -2.637728 13
32.015961 -16.388489 -0.6272009 34
3.543179 -2.6912656 -0.54124403 29
19.895767 -10.181906 -1.948397 9
7.6379833 -5.805995 -1.8546672 5
10.499756 -5.3688836 -1.8644061 4
5.4801598 -4.169662 -1.8344791 15
7.0838771 -3.6130435 -1.8249649 6
12.253457 -10.76312 3.45629 6
21.725393 -13.066677 6.3029051 31
30.038828 -26.356354 5.6114588 3
23.63599 -14.238045 4.8543005 19
29.311407 -25.699896 2.7166696 1
28.351002 -17.098057 3.4760942 6
nan nan nan 0
32.989491 -19.918621 1.344503 1
3.5472212 -3.107502 -0.32651591 3
34.016655 -20.546839 -1.3934925 63
nan nan nan 0
16.781048 -10.137351 -2.0500302 5
6.5790515 -5.7905331 -1.8571367 10
9.1551809 -5.5295196 -1.879743 5
4.9099917 -4.3352571 -1.8669959 9
6.3517365 -3.8340349 -1.8397378 6
13.771049 -10.450727 3.9767361 23
24.549051 -12.443501 7.3551011 9
22.962179 -17.420872 4.5492334 25
19.27879 -9.8154783 4.1945047 27
29.058855 -22.046831 3.1881568 29
19.796604 -10.109407 2.7211249 31
56.739086 -43.065266 1.2427422 1
58.485306 -29.920658 3.4410892 1
39.980007 -30.355429 -2.637728 13
32.018818 -16.382906 -0.6272009 34
3.543649 -2.6906469 -0.54124403 29
19.897547 -10.178433 -1.948397 9
7.6379833 -5.805995 -1.8546672 5
10.500692 -5.3670511 -1.8644061 4
5.4808874 -4.1687055 -1.8344791 15
7.0845079 -3.6118071 -1.8249649 6
nan nan nan 0
21.67135 -13.137405 6.3004894 29
nan nan nan 0
23.588251 -14.32174 4.8547339 24
nan nan nan 0
23.827211 -14.483869 2.9270582 8
nan nan nan 0
nan nan nan 0
nan nan nan 0
nan nan nan 0
nan nan nan 0
16.75193 -10.199744 -2.0508115 5
6.5770907 -5.8296914 -1.8623387 9
9.1337204 -5.5601645 -1.8793089 4
4.8804693 -4.3395848 -1.8614866 6
6.3424597 -3.8587039 -1.8409466 6
13.771255 -10.526845 3.9874053 19
24.623743 -12.589563 7.3906422 4
22.907116 -17.505419 4.5504045 8
19.253141 -9.8871965 4.1964111 28
25.550581 -19.525778 2.8103368 2
20.200235 -10.404472 2.7816687 21
nan nan nan 0
nan nan nan 0
40.197037 -30.742022 -2.659126 13
24.797405 -12.798525 -0.48648974 16
3.5224121 -2.6939514 -0.53941864 32
19.972572 -10.304902 -1.9592698 9
7.6313081 -5.8430676 -1.8580004 5
10.49726 -5.4115868 -1.8671467 4
5.4720521 -4.1922197 -1.836419 21
7.0761914 -3.6387403 -1.826088 5
nan nan nan 0
21.67135 -13.137405 6.3004894 29
nan nan nan 0
23.588251 -14.32174 4.8547339 24
30.408522 -26.850382 2.8271313 3
23.824684 -14.488026 2.9270582 8
55.38287 -48.889812 0 1
32.571857 -19.821962 1.3302815 1
nan nan nan 0
nan nan nan 0
nan nan nan 0
16.75193 -10.199744 -2.0508115 5
6.5760727 -5.8308392 -1.8623387 9
9.1337204 -5.5601645 -1.8793089 4
4.8797121 -4.3404365 -1.8614866 6
6.3424597 -3.8587039 -1.8409466 6
13.769418 -10.529248 3.9874053 19
24.623743 -12.589563 7.3906422 4
22.90406 -17.509417 4.5504045 8
19.253141 -9.8871965 4.1964111 28
29.146025 -22.281765 3.2066777 13
20.200235 -10.404472 2.7816687 21
57.071266 -43.648006 1.2535189 1
58.258476 -30.06167 3.4338927 1
40.191673 -30.749039 -2.659126 13
24.795174 -12.802847 -0.48648974 16
3.5219421 -2.694566 -0.53941864 32
19.970774 -10.308388 -1.9592698 9
7.6313081 -5.8430676 -1.8580004 5
10.496315 -5.4134183 -1.8671467 4
5.4713211 -4.1931744 -1.836419 21
7.0755563 -3.6399751 -1.826088 5
2.3413792 -2.081929 0.65801948 6
21.937696 -13.40903 6.3922906 9
nan nan nan 0
23.415901 -14.334835 4.8300133 16
nan nan nan 0
23.601849 -14.471296 2.9061527 10
nan nan nan 0
nan nan nan 0
nan nan nan 0
34.25843 -21.028898 -1.4095389 44
nan nan nan 0
16.72291 -10.266277 -2.0518534 5
6.5437198 -5.8451233 -1.8592174 1
9.1153793 -5.5948911 -1.879743 5
nan nan nan 0
6.3303432 -3.8831923 -1.8415509 6
13.944919 -10.744708 4.0497346 20
24.592461 -12.687477 7.3951659 17
22.837776 -17.59174 4.550014 5
19.308304 -10.0051 4.2164288 27
25.49712 -19.640457 2.8127337 18
20.069479 -10.430397 2.7688906 14
nan nan nan 0
nan nan nan 0
40.491936 -31.214718 -2.6865625 13
24.736996 -12.887867 -0.48627159 45
3.5140071 -2.7089722 -0.53972286 34
19.977037 -10.404515 -1.9636189 2
7.6253843 -5.8829932 -1.8618096 5
10.463258 -5.4450188 -1.8647976 5
5.4520931 -4.210247 -1.8351258 21
7.0556788 -3.6625204 -1.8244032 5
2.3413792 -2.081929 0.65801948 6
21.937696 -13.40903 6.3922906 9
2.4361138 -2.1633952 0.45300838 1
23.415901 -14.334835 4.8300133 16
nan nan nan 0
23.601849 -14.471296 2.9061527 10
nan nan nan 0
32.288151 -19.811859 1.3216438 1
nan nan nan 0
34.25843 -21.028898 -1.4095389 44
nan nan nan 0
16.722906 -10.266282 -2.0518534 5
6.5437198 -5.8451233 -1.8592174 1
9.1144018 -5.5964818 -1.879743 5
nan nan nan 0
6.3296652 -3.8842971 -1.8415509 6
13.944919 -10.744708 4.0497346 20
24.590244 -12.691771 7.3951659 17
25.050219 -19.296165 4.9913573 1
19.306557 -10.00847 4.2164288 27
27.466095 -21.15732 3.0301871 1
24.680521 -12.831114 3.4062741 1
57.362324 -44.204784 1.2634668 1
24.844179 -12.943686 1.4663227 1
40.491936 -31.214718 -2.6865625 13
24.734745 -12.892184 -0.48627159 45
3.5140071 -2.7089722 -0.53972286 34
23.595644 -12.293477 -2.3200276 1
7.6243567 -5.8843246 -1.8618096 5
10.462308 -5.4468451 -1.8647976 5
5.4513583 -4.2111983 -1.8351258 21
7.0556788 -3.6625204 -1.8244032 5
2.3377366 -2.0933566 0.65905815 9
21.568525 -13.287054 6.2980733 17
2.4359205 -2.1784964 0.45440012 7
23.5606 -14.536702 4.8703465 8
2.3689995 -2.117029 0.21918444 4
23.102779 -14.27654 2.8507524 5
2.2912486 -2.0466611 0 16
nan nan nan 0
nan nan nan 0
34.798885 -21.528198 -1.4348799 45
nan nan nan 0
16.710232 -10.338982 -2.0547185 5
2.3528123 -2.1128271 -0.66534394 2
9.0927181 -5.6269674 -1.8793089 5
2.3360393 -2.105036 -0.89114451 18
6.3119407 -3.9038169 -1.8403422 6
13.832275 -10.735063 4.0278349 22
nan nan nan 0
23.699009 -18.38739 4.7345901 16
19.09967 -9.9860086 4.1787777 30
27.16777 -21.079014 3.0053477 9
20.10804 -10.544204 2.7795391 10
29.38031 -22.804073 0.64857501 4
nan nan nan 0
40.714005 -31.613113 -2.7086172 6
24.722786 -12.995886 -0.48692605 7
3.4986513 -2.7166538 -0.53881013 34
22.004755 -11.562791 -2.1673741 10
7.5979586 -5.906383 -1.8603811 5
10.451978 -5.4879203 -1.8663636 5
5.4461532 -4.2376184 -1.838359 21
7.0450106 -3.6882558 -1.8249649 6
2.3377366 -2.0933566 0.65905815 9
21.568525 -13.287054 6.2980733 17
2.4359205 -2.1784964 0.45440012 7
28.361286 -17.498196 5.8639321 4
2.3689995 -2.117029 0.21918444 4
27.97275 -17.278723 3.4520524 18
nan nan nan 0
32.567307 -20.13994 1.3359526 1
nan nan nan 0
34.798885 -21.528198 -1.4348799 45
nan nan nan 0
16.710234 -10.338976 -2.0547185 5
2.3531811 -2.112416 -0.66534394 2
9.0936995 -5.6253805 -1.8793089 5
2.3364065 -2.1046283 -0.89114451 18
6.3126221 -3.9027152 -1.8403422 6
13.834149 -10.732647 4.0278349 22
nan nan nan 0
23.702217 -18.383255 4.7345901 16
19.101414 -9.9826736 4.1787777 30
31.174093 -24.179043 3.4485347 6
24.78071 -12.987739 3.4260497 4
57.762451 -44.819233 1.2755527 1
24.389977 -12.810146 1.4419864 1
40.719521 -31.606007 -2.7086172 6
32.057262 -16.835567 -0.63143319 2
3.4991252 -2.7160435 -0.53881013 34
23.521622 -12.349028 -2.3165483 1
7.5989895 -5.9050565 -1.8603811 5
10.453893 -5.4842715 -1.8663636 5
5.4476323 -4.2357173 -1.838359 21
7.0456538 -3.6870263 -1.8249649 6
2.2999408 -2.0732203 0.65022922 9
21.45632 -13.316296 6.2781429 21
2.3092289 -2.0787408 0.43178451 12
23.662828 -14.708324 4.9015727 18
2.3527069 -2.1165214 0.21831468 8
23.034594 -14.3346 2.847878 10
2.290019 -2.0592704 0 40
28.22506 -17.584625 1.1600592 43
nan nan nan 0
28.122154 -17.527338 -1.1617405 6
nan nan nan 0
16.667414 -10.389072 -2.0536766 5
2.3135462 -2.0906537 -0.65598017 16
9.079174 -5.6581082 -1.880177 4
2.3045211 -2.0897291 -0.88150305 24
6.3017049 -3.9249091 -1.8409466 6
13.721697 -10.718472 4.005374 21
23.125973 -12.131216 6.978364 23
23.611935 -18.438953 4.7287369 3
18.959631 -9.9887896 4.1549478 26
27.16815 -21.216383 3.0127563 40
22.301935 -11.783537 3.0883429 7
29.470045 -23.022455 0.65215278 3
24.771027 -13.11518 1.4671077 17
40.868233 -31.939182 -2.7255516 4
32.308346 -17.104309 -0.6374979 34
3.4881449 -2.7261033 -0.53850585 34
nan nan nan 0
7.5948267 -5.9423246 -1.8641905 4
10.437833 -5.5200615 -1.8667552 5
5.4411607 -4.2597151 -1.8409454 20
7.0312333 -3.7092347 -1.8244032 5
2.2999408 -2.0732203 0.65022922 9
21.45632 -13.316296 6.2781429 21
2.3092289 -2.0787408 0.43178451 12
25.329481 -15.74411 5.2472243 1
2.3527069 -2.1165214 0.21831468 8
28.15807 -17.522444 3.4821045 13
nan nan nan 0
28.22506 -17.584625 1.1600592 43
nan nan nan 0
34.793037 -21.684444 -1.4375981 18
nan nan nan 0
16.667414 -10.389072 -2.0536766 5
2.3135462 -2.0906537 -0.65598017 16
9.079174 -5.6581082 -1.880177 4
2.3045211 -2.0897291 -0.88150305 24
6.3017049 -3.9249091 -1.8409466 6
13.721697 -10.718472 4.005374 21
23.125973 -12.131216 6.978364 23
25.326485 -19.778027 5.0725241 6
18.959631 -9.9887896 4.1549478 26
27.16815 -21.216383 3.0127563 40
24.904264 -13.157912 3.4491718 8
58.088203 -45.381409 1.2860677 1
24.771027 -13.11518 1.4671077 17
40.868233 -31.939182 -2.7255516 4
32.308346 -17.104309 -0.6374979 34
3.4881449 -2.7261033 -0.53850585 34
nan nan nan 0
7.5948267 -5.9423246 -1.8641905 4
10.437833 -5.5200615 -1.8667552 5
5.4411607 -4.2597151 -1.8409454 20
7.0312333 -3.7092347 -1.8244032 5
2.2908814 -2.0795901 0.64970982 10
21.524891 -13.463141 6.3119645 22
2.3202777 -2.1034408 0.43526381 12
23.605082 -14.786911 4.9002714 14
2.3176136 -2.0995681 0.21570532 8
27.67123 -17.353813 3.4293175 13
2.3050272 -2.0874188 0 255
nan nan nan 0
2.3002708 -2.0852795 -0.21414016 164
28.041763 -17.613438 -1.1609514 77
nan nan nan 0
16.62052 -10.440577 -2.0523741 5
2.2917838 -2.0855305 -0.65181857 19
9.0677099 -5.6950026 -1.8819135 5
2.2812605 -2.0831537 -0.87530506 25
6.2879658 -3.9468825 -1.8409466 6
13.561672 -10.669887 3.9694359 21
22.242325 -11.767059 6.7237592 25
23.430979 -18.429657 4.7053232 20
19.02652 -10.109009 4.1773477 25
27.11937 -21.331102 3.0155885 34
20.020145 -10.668 2.7771051 26
29.420931 -23.149916 0.65285081 3
nan nan nan 0
nan nan nan 0
32.495426 -17.348803 -0.64238459 35
3.4844556 -2.7428694 -0.53941864 34
22.243851 -11.872288 -2.1984704 17
3.7752278 -2.9740591 -0.92566693 7
10.416321 -5.5553017 -1.8663636 5
5.4528017 -4.2996225 -1.8499981 6
7.0268478 -3.7383275 -1.8266493 6
2.2908814 -2.0795901 0.64970982 10
21.524891 -13.463141 6.3119645 22
2.3202777 -2.1034408 0.43526381 12
25.195078 -15.782767 5.2307439 1
2.3176136 -2.0995681 0.21570532 8
27.668201 -17.358643 3.4293175 13
2.2809663 -2.0655711 0 255
27.822823 -17.469164 1.1460121 1
2.3002708 -2.0852795 -0.21414016 164
28.041763 -17.613438 -1.1609514 77
nan nan nan 0
16.62052 -10.440577 -2.0523741 5
2.2914197 -2.0859306 -0.65181857 19
9.0677099 -5.6950026 -1.8819135 5
2.2808969 -2.0835519 -0.87530506 25
6.2879658 -3.9468825 -1.8409466 6
13.55981 -10.672254 3.9694359 21
22.242325 -11.767059 6.7237592 25
23.427761 -18.433746 4.7053232 20
19.02652 -10.109009 4.1773477 25
27.115646 -21.335835 3.0155885 34
22.227816 -11.843817 3.0837793 1
58.449821 -46.009918 1.2978045 1
nan nan nan 0
34.919678 -27.496744 -2.3352683 1
32.492401 -17.354467 -0.64238459 35
3.4839768 -2.7434773 -0.53941864 34
22.241777 -11.87617 -2.1984704 17
3.7752278 -2.9740591 -0.92566693 7
10.415351 -5.5571189 -1.8663636 5
5.4520512 -4.3005743 -1.8499981 6
7.0261955 -3.7395537 -1.8266493 6
2.2850463 -2.0896254 0.65022922 10
21.600584 -13.620865 6.3488059 21
2.2723844 -2.0751488 0.42760932 17
25.101669 -15.852659 5.223371 25
2.2804642 -2.081111 0.21292204 7
23.750525 -15.022678 2.9500546 24
2.2807589 -2.0806668 0 255
28.087952 -17.779469 1.159623 39
2.2760587 -2.0785382 -0.21257454 255
27.983349 -17.720108 -1.1612145 71
nan nan nan 0
16.57794 -10.498765 -2.0518534 5
2.2711594 -2.0827291 -0.64817715 22
9.0467749 -5.7281995 -1.8819135 4
2.2591155 -2.0788593 -0.86979562 29
6.2857594 -3.9776821 -1.8445728 6
13.543507 -10.740047 3.9761746 24
22.260843 -11.881469 6.7424989 28
23.247814 -18.43051 4.6826901 12
18.967709 -10.167087 4.1725817 22
26.94945 -21.365448 3.0057836 29
19.580898 -10.526372 2.7214291 21
nan nan nan 0
nan nan nan 0
nan nan nan 0
32.675045 -17.606205 -0.64727134 34
3.4661248 -2.7500565 -0.53820169 30
22.171785 -11.94344 -2.1958609 13
3.5759687 -2.8382835 -0.87900269 22
10.410136 -5.6034427 -1.8691043 5
3.7350683 -2.9678304 -1.2680343 9
7.0102954 -3.7641296 -1.826088 6
2.2850463 -2.0896254 0.65022922 10
21.600584 -13.620865 6.3488059 21
2.2723844 -2.0751488 0.42760932 17
