# .PCD v0.7 - Point Cloud Data file format
VERSION 0.7
FIELDS x y z intensity
SIZE 4 4 4 4
TYPE F F F F
COUNT 1 1 1 1
WIDTH 1456
HEIGHT 1
VIEWPOINT 0 0 0 1 0 0 0
POINTS 1456
DATA ascii
26.315773 10.798594 7.6019516 4
34.911034 7.4158773 5.6344471 46
31.776863 12.975879 6.6589737 13
23.311293 4.9523849 2.0819328 9
31.784712 12.933837 4.2030792 20
44.448055 9.4331827 0.79251373 1
31.86043 12.93229 1.800226 23
23.50647 4.985261 -1.2616934 7
31.931623 12.954705 -0.60089123 18
13.203808 2.7961886 -1.6505054 14
15.720517 6.3785348 -1.4782592 13
8.8075981 1.8641541 -1.7399112 12
10.132072 4.1154552 -1.7285495 16
6.5579271 1.3848587 -1.7853355 9
7.23351 2.9469519 -1.7923963 13
36.752663 4.9603372 7.8687081 32
35.313778 4.7913718 5.0036206 30
19.769012 2.6911194 1.3892119 4
59.215797 8.0630989 0 26
11.919301 1.6094034 -1.6812017 10
14.112608 4.5452251 -1.5494384 13
8.1754026 1.0950724 -1.7473731 8
9.4935236 3.0586772 -1.7525456 9
6.2217755 0.82340688 -1.7884871 9
6.9064217 2.2272034 -1.7992442 10
35.899078 7.4883184 8.444809 30
26.552427 10.787604 7.6594634 4
34.634548 7.2309008 5.585669 18
31.956196 12.919166 6.6870923 23
23.335751 4.8725095 2.0825863 8
32.080532 12.923911 4.2362413 24
23.512589 4.905138 0.41863957 8
31.965603 12.845207 1.8036277 16
23.560387 4.9108157 -1.2636625 15
31.976648 12.843165 -0.60089123 16
13.213488 2.7500818 -1.6505054 16
15.80739 6.3496313 -1.4843481 13
8.8212605 1.8348967 -1.7413397 12
10.139505 4.0772963 -1.727375 16
6.5579925 1.3609786 -1.7840424 10
7.2437525 2.9216843 -1.7923963 14
36.752663 4.9603372 7.8687081 32
35.313778 4.7913718 5.0036206 30
19.769012 2.6911194 1.3892119 4
59.215797 8.0630989 0 26
11.919301 1.6094034 -1.6812017 10
14.112608 4.5452251 -1.5494384 13
8.1754026 1.0950724 -1.7473731 8
9.4935236 3.0586772 -1.7525456 9
6.2217755 0.82340688 -1.7884871 9
6.9064217 2.2272034 -1.7992442 10
35.899078 7.4883184 8.444809 30
26.552427 10.787604 7.6594634 4
34.634548 7.2309008 5.585669 18
31.956196 12.919166 6.6870923 23
23.335751 4.8725095 2.0825863 8
32.080532 12.923911 4.2362413 24
31.965603 12.845207 1.8036277 16
23.560387 4.9108157 -1.2636625 15
31.976648 12.843165 -0.60089123 16
13.213488 2.7500818 -1.6505054 16
15.80739 6.3496313 -1.4843481 13
8.8212605 1.8348967 -1.7413397 12
10.139505 4.0772963 -1.727375 16
6.5579925 1.3609786 -1.7840424 10
7.2437525 2.9216843 -1.7923963 14
36.771328 4.8387518 7.8692269 29
35.15276 4.6508822 4.978569 24
19.740746 2.6206331 1.3866025 1
59.544563 7.9068146 0 93
19.71446 2.6101468 -1.3846918 37
11.929483 1.5705134 -1.6818959 12
14.137079 4.5014191 -1.5504802 14
8.1668644 1.0663787 -1.7447722 8
9.5012693 3.0264311 -1.7521116 9
6.2268553 0.80307591 -1.7891757 9
6.9137692 2.2042887 -1.7992442 10
36.054966 7.3961506 8.4756927 18
26.930817 10.837493 7.7583327 2
34.593021 7.102603 5.5751328 46
32.01025 12.817687 6.6894755 20
23.376177 4.8001065 2.0847654 6
32.134739 12.822058 4.2377625 25
23.768696 4.8763556 0.42291543 17
32.214458 12.821327 1.8152725 23
23.542303 4.825644 -1.2618246 7
32.283829 12.84242 -0.60586518 6
13.241982 2.7102273 -1.6529392 15
15.844557 6.3036261 -1.4858702 12
8.8200827 1.80416 -1.7399112 13
10.155262 4.0445642 -1.7277665 15
6.5695677 1.3406708 -1.7859821 9
7.2466164 2.8949313 -1.7907116 13
36.771328 4.8387518 7.8692269 29
35.15276 4.6508822 4.978569 24
19.740746 2.6206331 1.3866025 1
70.904953 9.4145451 0 1
19.71446 2.6101468 -1.3846918 37
11.929208 1.5725956 -1.6818959 12
14.137079 4.5014191 -1.5504802 14
8.1666784 1.0678042 -1.7447722 8
9.5012693 3.0264311 -1.7521116 9
6.2267151 0.80416274 -1.7891757 9
6.9137692 2.2042887 -1.7992442 10
36.053673 7.4024434 8.4756927 18
26.930817 10.837493 7.7583327 2
34.591785 7.1086402 5.5751328 46
32.01025 12.817687 6.6894755 20
23.37534 4.8041868 2.0847654 6
32.134739 12.822058 4.2377625 25
35.249165 7.2372828 0.62750119 1
32.214458 12.821327 1.8152725 23
23.541462 4.8297529 -1.2618246 7
32.283829 12.84242 -0.60586518 6
13.241509 2.7125385 -1.6529392 15
15.843457 6.3063908 -1.4858702 12
8.8200827 1.80416 -1.7399112 13
10.154556 4.0463362 -1.7277665 15
6.569334 1.3418174 -1.7859821 9
7.2461109 2.8961961 -1.7907116 13
36.761318 4.706954 7.8635149 18
35.021458 4.5091963 4.9576931 28
19.6632 2.5405419 1.3805141 7
71.249779 9.2073355 0 3
19.476097 2.509496 -1.3672962 38
11.924801 1.5296886 -1.6805075 12
14.169309 4.4572697 -1.5523034 13
8.172781 1.039598 -1.7452923 8
9.511776 2.9932468 -1.7521116 9
6.2223296 0.78152877 -1.7871097 9
6.9214215 2.1801417 -1.7992442 9
36.389744 7.3391452 8.5486908 16
29.817631 11.878963 8.5790129 4
34.391277 6.9424181 5.5388422 52
32.136925 12.738439 6.7066331 18
23.465202 4.7373424 2.0913019 12
32.197762 12.717103 4.2401962 16
35.563351 7.1724963 0.63264972 62
32.228825 12.6969 1.8135717 20
23.550833 4.7460694 -1.2614307 5
32.330784 12.730565 -0.60590881 18
13.233869 2.6628759 -1.6508095 15
15.830618 6.2373447 -1.4826084 14
8.8263264 1.7733612 -1.7399112 12
10.166323 4.0099592 -1.727375 15
6.562139 1.3165059 -1.7827491 9
7.258441 2.8717828 -1.7912731 10
36.761318 4.706954 7.8635149 18
35.021458 4.5091963 4.9576931 28
19.6632 2.5405419 1.3805141 7
71.249779 9.2073355 0 3
19.476534 2.5060968 -1.3672962 38
11.925068 1.5276072 -1.6805075 12
14.169311 4.4572639 -1.5523034 13
8.1729631 1.0381715 -1.7452923 8
9.5122976 2.9915867 -1.7521116 9
6.222466 0.78044277 -1.7871097 9
6.9218016 2.1789336 -1.7992442 9
36.391022 7.3327942 8.5486908 16
29.819704 11.873758 8.5790129 4
34.392487 6.9364157 5.5388422 52
32.139149 12.73283 6.7066331 18
35.182079 7.0956192 3.1369531 1
32.199982 12.711484 4.2401962 16
35.564598 7.1662898 0.63264972 62
32.231041 12.691277 1.8135717 20
23.551661 4.7419586 -1.2614307 5
32.333008 12.724921 -0.60590881 18
13.234333 2.6605661 -1.6508095 15
15.832795 6.2318182 -1.4826084 14
8.8266363 1.7718207 -1.7399112 12
10.167723 4.0064101 -1.727375 15
6.5625978 1.3142152 -1.7827491 9
7.2589421 2.8705156 -1.7912731 10
36.824429 4.5779114 7.8733821 1
35.18269 4.398911 4.9782214 25
19.655062 2.4662862 1.3792964 7
71.330177 8.9520407 0 1
19.596952 2.4485855 -1.3751242 19
11.937959 1.4848037 -1.6815488 12
14.223541 4.4171042 -1.5564706 13
8.1742859 1.0079112 -1.7447722 7
9.5161448 2.9545107 -1.7508091 9
6.2205133 0.75705373 -1.7857325 9
6.9227924 2.1513877 -1.7974311 9
33.764877 6.6750627 7.925396 16
30.305653 11.93883 8.706315 3
34.410412 6.8088765 5.5376716 36
33.152069 12.993898 6.9082322 3
35.200523 6.9651732 3.1362996 46
32.373478 12.643044 4.2569299 6
35.607788 7.0392828 0.63295507 2
32.379696 12.612942 1.8193287 18
23.537045 4.6493187 -1.2597243 3
32.365456 12.600887 -0.60564703 13
13.270776 2.6173201 -1.6541562 14
15.908901 6.1945443 -1.4876097 14
8.8330708 1.7394575 -1.7399112 10
10.182339 3.9691169 -1.727375 14
6.5673709 1.2901531 -1.7827491 9
7.2671466 2.8430021 -1.7907116 13
36.824429 4.5779114 7.8733821 1
35.18269 4.398911 4.9782214 25
19.655062 2.4662862 1.3792964 7
71.330177 8.9520407 0 1
19.596952 2.4485855 -1.3751242 19
11.937959 1.4848037 -1.6815488 12
14.223541 4.4171042 -1.5564706 13
8.1742859 1.0079112 -1.7447722 7
9.5161448 2.9545107 -1.7508091 9
6.2205133 0.75705373 -1.7857325 9
6.9227924 2.1513877 -1.7974311 9
33.764877 6.6750627 7.925396 16
30.305653 11.93883 8.706315 3
34.410412 6.8088765 5.5376716 36
33.152069 12.993898 6.9082322 3
35.200523 6.9651732 3.1362996 46
32.373478 12.643044 4.2569299 6
37.790234 7.4706273 0.67178673 38
32.379696 12.612942 1.8193287 18
26.39043 5.2127523 -1.4126607 5
32.365456 12.600887 -0.60564703 13
13.270776 2.6173201 -1.6541562 14
15.908901 6.1945443 -1.4876097 14
8.8330708 1.7394575 -1.7399112 10
10.182339 3.9691169 -1.727375 14
6.5673709 1.2901531 -1.7827491 9
7.2671466 2.8430021 -1.7907116 13
35.416561 4.3026204 5.0091877 25
36.628223 11.287163 6.7451921 9
19.591755 2.3889234 1.3742517 10
19.466734 2.3633618 -1.3653827 32
11.938152 1.442531 -1.6808547 12
14.243628 4.3688869 -1.5569916 13
8.1728992 0.97879243 -1.7437317 7
9.5263996 2.9212749 -1.7508091 8
6.2231178 0.73533547 -1.7857325 9
6.9348979 2.1286342 -1.7986399 10
33.838188 6.5669036 7.9371877 29
54.338024 21.191454 15.596795 13
34.455788 6.6929569 5.5411835 18
34.676979 6.7359056 3.0874922 23
37.786636 7.3329558 0.6712631 4
33.140957 12.77653 1.8596272 13
32.514194 12.528289 -0.6076104 13
13.262777 2.5676813 -1.6520265 15
15.94437 6.1443524 -1.4889146 14
8.8463182 1.7100098 -1.7413397 10
10.189221 3.9308805 -1.7262006 15
6.5765767 1.2681342 -1.7840424 9
7.2792969 2.8184986 -1.7912731 10
35.416561 4.3026204 5.0091877 25
36.628223 11.287163 6.7451921 9
83.741272 10.19732 5.8817973 3
19.466322 2.3667595 -1.3653827 32
11.938152 1.442531 -1.6808547 12
14.243626 4.3688931 -1.5569916 13
8.1728992 0.97879243 -1.7437317 7
9.5258904 2.9229379 -1.7508091 8
6.2231178 0.73533547 -1.7857325 9
6.934526 2.1298447 -1.7986399 10
33.838188 6.5669036 7.9371877 29
54.334328 21.200937 15.596795 13
34.455788 6.6929569 5.5411835 18
34.99725 6.7981024 3.1160357 46
37.786636 7.3329558 0.6712631 4
33.138725 12.782314 1.8596272 13
32.512005 12.533965 -0.6076104 13
13.262777 2.5676813 -1.6520265 15
15.943297 6.1471348 -1.4889146 14
8.8460188 1.7115538 -1.7413397 10
10.188536 3.9326589 -1.7262006 15
6.5763555 1.2692821 -1.7840424 9
7.2792969 2.8184986 -1.7912731 10
35.617485 4.2072001 5.0356302 13
33.959251 10.341366 6.246881 34
19.713495 2.3374257 1.3822536 10
19.446819 2.298979 -1.3634691 4
11.947788 1.4035108 -1.6815488 13
14.272312 4.3259649 -1.5585543 14
8.1882439 0.9530921 -1.7463328 7
9.5190382 2.8863285 -1.7477702 10
6.2255225 0.71469474 -1.7857325 9
6.943872 2.1075423 -1.7992442 9
33.876534 6.4578495 7.9411187 32
54.420101 21.026733 15.601318 13
34.196419 6.5249858 5.4959173 4
34.6502 6.6115427 3.0831344 22
33.194931 12.6777 1.8604124 18
33.765335 12.888879 -0.6302551 1
13.290722 2.5273924 -1.6544604 16
12.162088 4.6418152 -1.133593 35
8.8444138 1.6808366 -1.7399112 10
10.203825 3.8997328 -1.7265919 15
6.5686641 1.2452211 -1.7808092 9
7.2863293 2.7934706 -1.7907116 10
35.617485 4.2072001 5.0356302 13
36.60186 11.146269 6.7334819 1
19.713495 2.3374257 1.3822536 10
19.446819 2.298979 -1.3634691 4
11.947543 1.405596 -1.6815488 13
14.272312 4.3259649 -1.5585543 14
8.1880779 0.95452118 -1.7463328 7
9.5190382 2.8863285 -1.7477702 10
6.2253971 0.71578133 -1.7857325 9
6.943872 2.1075423 -1.7992442 9
33.875404 6.4637613 7.9411187 32
54.420101 21.026733 15.601318 13
34.195282 6.5309544 5.4959173 4
34.649044 6.61759 3.0831344 22
33.194931 12.6777 1.8604124 18
33.765335 12.888879 -0.6302551 1
13.29028 2.5297122 -1.6544604 16
12.161277 4.6439381 -1.133593 35
8.8444138 1.6808366 -1.7399112 10
10.203145 3.9015138 -1.7265919 15
6.5684466 1.2463676 -1.7808092 9
7.2858415 2.7947423 -1.7907116 10
35.838558 4.1064959 5.0648565 3
33.884323 10.189433 6.2264977 28
19.785954 2.275995 1.3867766 3
11.957296 1.3644423 -1.6822429 12
14.301617 4.2803979 -1.560117 13
8.1864996 0.92538679 -1.7452923 7
9.5455647 2.8580298 -1.7508091 10
6.2302465 0.69431072 -1.7864211 9
6.9465394 2.0818968 -1.7980355 8
33.912128 6.3481636 7.9444876 36
54.594669 20.875467 15.630398 6
33.686325 6.3119793 5.4104581 9
65.504456 24.917158 13.603427 34
34.950996 6.5488777 3.1079738 13
45.309887 17.125376 2.5367236 20
13.279516 2.4796636 -1.6520265 16
12.19139 4.6067462 -1.1348978 152
8.8574648 1.6513015 -1.7413397 10
10.212084 3.864125 -1.725809 14
6.5822539 1.2251971 -1.7833956 9
7.2978296 2.770159 -1.7912731 9
35.838558 4.1064959 5.0648565 3
36.782009 11.060986 6.7595038 13
82.185867 9.4407425 5.7678561 9
11.957533 1.3623554 -1.6822429 12
14.301617 4.2803979 -1.560117 13
8.1866608 0.92395794 -1.7452923 7
9.5455647 2.8580298 -1.7508091 10
6.2303677 0.69322342 -1.7864211 9
6.9465394 2.0818968 -1.7980355 8
33.913239 6.3422451 7.9444876 36
54.594669 20.875467 15.630398 6
33.687428 6.3060989 5.4104581 9
65.504456 24.917158 13.603427 34
34.952137 6.5427775 3.1079738 13
45.309887 17.125376 2.5367236 20
13.279948 2.4773459 -1.6520265 16
12.192194 4.6046181 -1.1348978 152
8.8574648 1.6513015 -1.7413397 10
10.212758 3.8623426 -1.725809 14
6.582468 1.2240481 -1.7833956 9
7.2983131 2.7688854 -1.7912731 9
33.940327 10.070777 6.2299671 69
20.218019 2.2505543 1.416523 2
11.955064 1.3177085 -1.6812017 12
14.3339 4.2328825 -1.5619402 13
8.1851311 0.89341801 -1.7442518 9
9.5394497 2.8181386 -1.7477702 10
6.2328663 0.67038327 -1.7864211 9
6.951797 2.0557342 -1.7974311 8
33.871555 6.2060528 7.9293261 32
55.07515 20.828173 15.746069 6
33.892479 6.2159872 5.4397249 18
66.226997 24.914577 13.73449 1
34.777466 6.3782463 3.0903249 38
45.370014 16.958317 2.536593 16
13.293821 2.4295473 -1.6526351 16
12.190327 4.5529227 -1.1331582 164
8.8586292 1.6179452 -1.7403873 10
10.224533 3.8240192 -1.7254175 14
6.5774064 1.1981852 -1.7808092 9
7.2992911 2.7386885 -1.789027 9
33.940327 10.070777 6.2299671 69
80.94339 8.9976206 5.6782684 4
11.955064 1.3177085 -1.6812017 12
14.333902 4.2328768 -1.5619402 13
8.1851311 0.89341801 -1.7442518 9
9.5399408 2.8164735 -1.7477702 10
6.2328663 0.67038327 -1.7864211 9
6.9521556 2.0545206 -1.7974311 8
33.871555 6.2060528 7.9293261 32
55.078785 20.81856 15.746069 6
33.892479 6.2159872 5.4397249 18
66.231346 24.903019 13.73449 1
34.777466 6.3782463 3.0903249 38
45.372971 16.950399 2.536593 16
13.293821 2.4295473 -1.6526351 16
12.19112 4.5507951 -1.1331582 164
8.8589106 1.6163992 -1.7403873 10
10.225201 3.8222344 -1.7254175 14
6.5776153 1.1970372 -1.7808092 9
7.2992911 2.7386885 -1.789027 9
33.78389 9.8961687 6.1948385 69
20.560501 2.2159772 1.4400071 2
89.84919 9.6855927 0 1
21.097286 2.2625482 -1.4775845 6
11.954667 1.2754459 -1.6805075 14
14.386782 4.1939549 -1.5661074 12
8.1857672 0.86458552 -1.7437317 9
9.561532 2.7866025 -1.7499408 10
6.2303882 0.64812839 -1.7850438 8
6.9569569 2.0295606 -1.7968267 8
33.988926 6.1050038 7.9517879 36
55.67815 20.823328 15.896634 6
33.678219 6.0552669 5.4018731 20
34.99316 6.2916183 3.107538 27
45.420158 16.787586 2.5359385 4
13.287564 2.3805046 -1.6508095 13
16.110365 5.9513626 -1.4965255 1
8.8620834 1.5850344 -1.7399112 10
10.243112 3.7882335 -1.7262006 14
6.5865092 1.1749169 -1.7821023 9
7.3042402 2.711494 -1.787904 9
33.78389 9.8961687 6.1948385 69
80.994148 8.7171545 5.6796608 13
89.84919 9.6855927 0 1
21.096893 2.2662303 -1.4775845 6
11.954445 1.2775323 -1.6805075 14
14.386781 4.1939611 -1.5661074 12
8.1856165 0.86601418 -1.7437317 9
9.5610447 2.7882712 -1.7499408 10
6.2302747 0.64921582 -1.7850438 8
6.9566026 2.0307748 -1.7968267 8
33.987858 6.1109362 7.9517879 36
55.674519 20.833046 15.896634 6
33.677162 6.0611448 5.4018731 20
34.992058 6.2977262 3.107538 27
67.176872 24.844654 3.7518337 1
13.287149 2.3828239 -1.6508095 13
16.108286 5.9569855 -1.4965255 1
8.8618069 1.5865811 -1.7399112 10
10.241789 3.7918088 -1.7262006 14
6.5860987 1.1772158 -1.7821023 9
7.3037667 2.7127688 -1.787904 9
33.348244 9.6485653 6.1089678 70
20.38418 2.1286535 1.4271343 17
86.041687 8.9867887 0 1
20.895924 2.1746151 -1.4629722 4
11.968468 1.2388994 -1.6818959 12
14.431669 4.1551776 -1.5694933 13
8.1860104 0.83861697 -1.7432114 9
9.5560446 2.7524588 -1.7473361 10
6.2347846 0.62879139 -1.7857325 7
6.9632988 2.0076945 -1.7968267 8
34.195065 6.0311913 7.9955869 30
56.112423 20.785072 16.001965 6
33.594944 5.9314065 5.3854837 34
35.118214 6.2002692 3.1169074 31
18.99807 3.3481107 -1.0125315 26
13.15323 2.3138313 -1.6331637 14
16.074165 5.8838315 -1.491524 13
8.8670197 1.5571854 -1.7399112 9
10.256623 3.7586753 -1.7265919 10
6.5971022 1.1566184 -1.7840424 9
7.3104358 2.6876917 -1.7873425 9
33.348244 9.6485653 6.1089678 70
20.38418 2.1286535 1.4271343 17
72.876587 21.04641 7.9689884 1
86.041687 8.9867887 0 1
20.895924 2.1746151 -1.4629722 4
11.968468 1.2388994 -1.6818959 12
14.431669 4.1551776 -1.5694933 13
8.1860104 0.83861697 -1.7432114 9
9.5560446 2.7524588 -1.7473361 10
6.2347846 0.62879139 -1.7857325 7
6.9632988 2.0076945 -1.7968267 8
34.195065 6.0311913 7.9955869 30
56.112423 20.785072 16.001965 6
33.594944 5.9314065 5.3854837 34
35.118214 6.2002692 3.1169074 31
67.268265 24.625185 3.7523572 1
18.99807 3.3481107 -1.0125315 26
13.15323 2.3138313 -1.6331637 14
16.074165 5.8838315 -1.491524 13
8.8670197 1.5571854 -1.7399112 9
10.256623 3.7586753 -1.7265919 10
6.5971022 1.1566184 -1.7840424 9
7.3104358 2.6876917 -1.7873425 9
33.275185 9.5016727 6.0894518 58
20.326971 2.0509899 1.4226115 29
47.054394 13.410557 5.1388803 39
85.261642 8.6045971 0 13
20.754496 2.0867217 -1.4525348 5
11.967791 1.1966231 -1.6812017 10
14.450869 4.1061363 -1.5700142 13
8.1913214 0.81027681 -1.7437317 9
9.5869064 2.725148 -1.7512432 10
6.2321572 0.60656178 -1.784355 8
6.9632645 1.981382 -1.7950135 8
34.139091 5.8985219 7.9776177 32
56.817276 20.820965 16.182257 1
33.671406 5.8237786 5.3944588 37
35.171543 6.0831614 3.1197398 38
18.992418 3.2788029 -1.0116127 50
13.073191 2.2527447 -1.622211 20
16.054798 5.8132606 -1.4878273 13
8.8699818 1.5258087 -1.739435 10
10.267362 3.722008 -1.7262006 12
6.6010995 1.1335833 -1.7840424 9
7.322062 2.662991 -1.787904 9
33.275185 9.5016727 6.0894518 58
20.326971 2.0509899 1.4226115 29
72.410431 20.62454 7.9096689 2
85.261642 8.6045971 0 13
23.020086 2.3140562 -1.6113569 1
11.967999 1.1945343 -1.6812017 10
14.450869 4.1061363 -1.5700142 13
8.1914625 0.80884713 -1.7437317 9
9.5869064 2.725148 -1.7512432 10
6.2322626 0.60547405 -1.784355 8
6.9632645 1.981382 -1.7950135 8
34.140121 5.8925633 7.9776177 32
56.817276 20.820965 16.182257 1
33.672421 5.8179016 5.3944588 37
35.172604 6.0770221 3.1197398 38
18.99299 3.2754881 -1.0116127 50
13.073583 2.250463 -1.622211 20
16.055813 5.8104587 -1.4878273 13
8.8699818 1.5258087 -1.739435 10
10.268011 3.720216 -1.7262006 12
6.6012979 1.1324311 -1.7840424 9
7.3225274 2.6617131 -1.787904 9
33.290829 9.3743095 6.0859823 59
20.294632 1.9726216 1.4198281 23
83.453773 8.1133604 0 18
17.366117 1.6824548 -1.2145627 10
11.967367 1.1501893 -1.6805075 12
14.453851 4.0497875 -1.568712 13
8.1846352 0.77789807 -1.7416508 9
9.5802374 2.6853373 -1.7482044 10
6.2392263 0.58307159 -1.7857325 8
6.97048 1.9558471 -1.7950135 8
34.2864 5.7884769 8.0068169 34
33.756828 5.7051439 5.4046049 38
35.214287 5.9513869 3.1214828 36
91.875694 32.891457 5.1124377 23
19.036873 3.2112491 -1.0133191 23
13.059721 2.1988258 -1.6194729 25
16.126242 5.7692027 -1.4923939 10
8.8706741 1.4924747 -1.7384826 10
10.279252 3.6817229 -1.725809 10
6.6030216 1.1078295 -1.7833956 9
7.3276491 2.6332066 -1.786781 9
33.290829 9.3743095 6.0859823 59
20.294632 1.9726216 1.4198281 23
45.868019 12.882165 5.0037775 1
83.453773 8.1133604 0 18
17.366411 1.6794238 -1.2145627 10
11.967367 1.1501893 -1.6805075 12
14.453852 4.0497818 -1.568712 13
8.1846352 0.77789807 -1.7416508 9
9.5807056 2.683665 -1.7482044 10
6.2392263 0.58307159 -1.7857325 8
6.9708214 1.9546304 -1.7950135 8
34.2864 5.7884769 8.0068169 34
33.756828 5.7051439 5.4046049 38
35.214287 5.9513869 3.1214828 36
19.036873 3.2112491 -1.0133191 23
13.059721 2.1988258 -1.6194729 25
16.127249 5.7663879 -1.4923939 10
8.8709345 1.4909265 -1.7384826 10
10.279894 3.679929 -1.725809 10
6.6032147 1.1066771 -1.7833956 9
7.3276491 2.6332066 -1.786781 9
33.112221 9.1993761 6.0473838 53
20.343609 1.9057139 1.4227854 19
45.359234 12.568589 4.9434123 73
83.125641 7.7886686 0 20
83.542183 23.119095 3.0257862 1
17.161093 1.5991755 -1.1997764 4
11.978706 1.1090906 -1.6815488 10
14.496657 4.007257 -1.5718374 13
8.1970406 0.75021005 -1.7437317 9
9.5947618 2.6515188 -1.7490727 9
6.231648 0.56043446 -1.7829777 9
6.977602 1.9302859 -1.7950135 8
34.373695 5.6798763 8.0225401 30
33.891045 5.6062112 5.4229455 30
19.863132 3.286413 1.7583671 3
18.880465 3.1171389 -1.0043924 37
13.057523 2.1516128 -1.6182559 22
16.116756 5.6992559 -1.4895669 12
8.873662 1.4595541 -1.7380065 10
10.285695 3.6415479 -1.7246344 12
6.5975051 1.0820596 -1.7808092 9
7.3345013 2.6067951 -1.7862194 8
33.112221 9.1993761 6.0473838 53
20.343609 1.9057139 1.4227854 19
45.359234 12.568589 4.9434123 73
83.125641 7.7886686 0 20
17.160812 1.6021707 -1.1997764 4
11.978706 1.1090906 -1.6815488 10
14.496656 4.0072632 -1.5718374 13
8.1970406 0.75021005 -1.7437317 9
9.5942984 2.6531935 -1.7490727 9
6.231648 0.56043446 -1.7829777 9
6.9772644 1.9315037 -1.7950135 8
34.373695 5.6798763 8.0225401 30
33.891045 5.6062112 5.4229455 30
35.242218 5.8296485 3.1221366 28
18.880465 3.1171389 -1.0043924 37
13.057523 2.1516128 -1.6182559 22
16.115763 5.7020693 -1.4895669 12
8.8734074 1.4611028 -1.7380065 10
10.28506 3.6433432 -1.7246344 12
6.5973163 1.0832111 -1.7808092 9
7.3345013 2.6067951 -1.7862194 8
33.213772 9.1090612 6.0603938 51
20.464073 1.8485394 1.4307874 12
43.534878 11.907682 4.7401047 48
82.817368 7.4828424 0 29
84.189583 22.99798 3.046464 3
16.917637 1.5229546 -1.1823808 3
11.977386 1.0689232 -1.6808547 10
14.490676 3.9539299 -1.5697539 13
8.1897411 0.7221694 -1.7416508 10
9.6030445 2.6213629 -1.7490727 8
6.2430506 0.54058939 -1.7857325 9
6.9789519 1.9070754 -1.7938048 8
34.462082 5.5771413 8.038825 34
33.907005 5.4933987 5.422555 26
19.716579 3.1950426 1.7444222 20
18.930132 3.0608847 -1.0064929 27
13.079286 2.1106708 -1.6200813 22
16.167488 5.6601262 -1.4926113 12
8.8782034 1.4316696 -1.7380065 12
10.297086 3.6092165 -1.7246344 13
6.6008716 1.0613277 -1.7808092 10
7.3339148 2.5792203 -1.7839732 9
33.213772 9.1090612 6.0603938 51
20.464073 1.8485394 1.4307874 12
45.31456 12.403049 4.9342661 1
82.817368 7.4828424 0 29
16.917637 1.5229546 -1.1823808 3
11.9772 1.0710138 -1.6808547 10
14.490676 3.9539299 -1.5697539 13
8.1896143 0.72359878 -1.7416508 10
9.6030445 2.6213629 -1.7490727 8
6.2429562 0.54167902 -1.7857325 9
6.9789519 1.9070754 -1.7938048 8
34.461109 5.5831561 8.038825 34
33.906048 5.4993162 5.422555 26
35.368526 5.7364426 3.1317236 1
18.929598 3.0641887 -1.0064929 27
13.078917 2.1129534 -1.6200813 22
16.166502 5.6629477 -1.4926113 12
8.8782034 1.4316696 -1.7380065 12
10.296455 3.6110137 -1.7246344 13
6.6006866 1.0624799 -1.7808092 10
7.3334641 2.5805001 -1.7839732 9
33.010086 8.9294071 6.0174589 39
34.880066 9.4157839 3.7935991 1
82.823059 7.1919808 0 9
16.716618 1.4461027 -1.1679424 2
11.993198 1.0302542 -1.68259 10
14.518793 3.9072025 -1.5713165 13
8.1993999 0.6956237 -1.7432114 9
9.6192675 2.5897472 -1.750375 9
6.2400188 0.51948822 -1.784355 9
6.9902501 1.8839666 -1.7950135 8
34.355267 5.4430132 8.0096254 28
33.934799 5.3824763 5.4241161 25
19.608999 3.1109214 1.7339636 30
18.932779 2.996923 -1.006099 2
13.140135 2.0757983 -1.6267745 16
16.181463 5.6048493 -1.4921763 13
8.8855715 1.401052 -1.7384826 10
10.308997 3.5750506 -1.7246344 12
6.606741 1.0398076 -1.7814558 9
7.3470278 2.5564899 -1.7850963 9
33.010086 8.9294071 6.0174589 39
43.444149 11.720019 4.7257318 41
98.847824 8.582696 0 1
16.716871 1.4431851 -1.1679424 2
11.993378 1.028161 -1.68259 10
14.518795 3.9071965 -1.5713165 13
8.1995211 0.69419265 -1.7432114 9
9.6197186 2.5880685 -1.750375 9
6.240109 0.51839906 -1.784355 9
6.9905791 1.8827465 -1.7950135 8
34.35622 5.4370174 8.0096254 28
33.935734 5.3765531 5.4241161 25
19.609541 3.1074989 1.7339636 30
18.933302 2.9936187 -1.006099 2
13.140497 2.0735052 -1.6267745 16
16.183418 5.5992007 -1.4921763 13
8.8858166 1.3995012 -1.7384826 10
10.310245 3.5714517 -1.7246344 12
6.6071033 1.0375012 -1.7814558 9
7.3474736 2.5552075 -1.7850963 9
32.997391 8.7963057 6.0092187 39
34.976036 9.2977581 3.8001323 4
53.507706 14.205203 1.932036 3
16.252283 1.3432008 -1.1350646 18
11.997066 0.98419619 -1.68259 10
14.533018 3.853956 -1.5713165 13
8.1946983 0.66354692 -1.7416508 9
9.6267595 2.5521615 -1.7499408 9
6.2467589 0.49590155 -1.7857325 9
6.992744 1.8558662 -1.7938048 8
34.36869 5.3099427 8.0079403 30
34.065025 5.2691169 5.4416761 13
19.569113 3.0276132 1.7293878 35
21.808756 3.3661339 -1.1585104 32
13.319686 2.0517526 -1.6480714 13
16.234467 5.5503302 -1.4950033 12
8.8811817 1.3654333 -1.7365779 10
10.325601 3.5344393 -1.7250259 12
6.6108618 1.0132781 -1.7814558 9
7.3613973 2.5298469 -1.7862194 9
32.997391 8.7963057 6.0092187 39
43.429142 11.545377 4.71946 31
98.412727 8.1816311 0 1
16.252283 1.3432008 -1.1350646 18
11.997066 0.98419619 -1.68259 10
14.533018 3.853956 -1.5713165 13
8.1946983 0.66354692 -1.7416508 9
9.6267595 2.5521615 -1.7499408 9
6.2467589 0.49590155 -1.7857325 9
6.992744 1.8558662 -1.7938048 8
34.36869 5.3099427 8.0079403 30
34.065025 5.2691169 5.4416761 13
19.569113 3.0276132 1.7293878 35
21.808756 3.3661339 -1.1585104 32
13.319686 2.0517526 -1.6480714 13
16.234467 5.5503302 -1.4950033 12
8.8811817 1.3654333 -1.7365779 10
10.325601 3.5344393 -1.7250259 12
6.6108618 1.0132781 -1.7814558 9
7.3613973 2.5298469 -1.7862194 9
33.051704 8.6873312 6.013556 37
35.090046 9.1970472 3.8090172 13
82.436279 6.5644264 0 3
53.489285 14.000622 1.929593 9
16.284222 1.2886188 -1.1369781 4
12.000429 0.94231254 -1.68259 12
14.551194 3.8044615 -1.5718374 13
8.2018404 0.63531315 -1.7426913 9
9.6332283 2.5179191 -1.7495067 10
6.243659 0.47373292 -1.784355 9
6.9991789 1.8314456 -1.7938048 8
34.389431 5.1903048 8.008502 26
34.542244 5.2195163 5.5150385 9
19.550014 2.9548221 1.7267731 36
21.635223 3.2620845 -1.1486647 29
13.380752 2.0133619 -1.6547648 12
16.251381 5.4928298 -1.4947858 12
8.8931761 1.3355162 -1.7380065 10
10.335537 3.4975824 -1.7246344 10
6.6048045 0.98876786 -1.7788693 10
7.3678765 2.5033505 -1.7856579 9
33.051704 8.6873312 6.013556 37
43.524498 11.408213 4.7254705 16
97.57093 7.7688417 0 1
22.551666 1.7869395 -1.5755219 5
12.000429 0.94231254 -1.68259 12
14.551193 3.8044674 -1.5718374 13
8.2018404 0.63531315 -1.7426913 9
9.6327887 2.5196009 -1.7495067 10
6.243659 0.47373292 -1.784355 9
6.9988594 1.8326671 -1.7938048 8
34.389431 5.1903048 8.008502 26
34.542244 5.2195163 5.5150385 9
19.550014 2.9548221 1.7267731 36
21.635223 3.2620845 -1.1486647 29
13.380752 2.0133619 -1.6547648 12
16.250422 5.4956656 -1.4947858 12
8.8929424 1.3370684 -1.7380065 10
10.334927 3.4993861 -1.7246344 10
6.6046319 0.98992068 -1.7788693 10
7.3678765 2.5033505 -1.7856579 9
33.051731 8.570261 6.0083513 26
85.725449 6.5251379 5.9943466 1
35.168499 9.0930853 3.8142436 26
75.288399 5.7444153 0 13
62.740143 16.200245 2.2615745 18
16.253374 1.234818 -1.1345428 5
12.003488 0.90251249 -1.68259 10
14.568544 3.7574353 -1.5723584 14
8.1990252 0.60775238 -1.7416508 9
9.6339397 2.4857965 -1.7482044 10
6.2404013 0.45268103 -1.7829777 9
7.0025506 1.8088408 -1.7932004 8
34.478752 5.0869007 8.0253477 16
34.732807 5.1305528 5.5427442 2
19.606512 2.896888 1.7309129 38
21.67556 3.1946874 -1.1502399 40
13.39963 1.9707826 -1.6562859 12
16.282726 5.4464908 -1.4960905 12
8.8900423 1.3065015 -1.7365779 12
10.332428 3.4603841 -1.7222853 10
6.6102676 0.96836281 -1.7795159 10
7.3761373 2.4789035 -1.7856579 10
33.051731 8.570261 6.0083513 26
91.124199 6.935811 6.372005 1
43.526424 11.262699 4.7218122 1
82.410233 6.2874103 0 99
72.486755 18.71726 2.6130998 3
22.301327 1.6927514 -1.5576044 1
12.003329 0.90460747 -1.68259 10
14.568544 3.7574353 -1.5723584 14
8.1989193 0.60918337 -1.7416508 9
9.6339397 2.4857965 -1.7482044 10
6.2403221 0.45377019 -1.7829777 9
7.0025506 1.8088408 -1.7932004 8
34.477859 5.0929179 8.0253477 16
34.731911 5.1366148 5.5427442 2
19.606009 2.9003098 1.7309129 38
21.675001 3.1984704 -1.1502399 40
13.399285 1.9731212 -1.6562859 12
16.281776 5.4493327 -1.4960905 12
8.8900423 1.3065015 -1.7365779 12
10.331823 3.4621873 -1.7222853 10
6.6100988 0.96951658 -1.7795159 10
7.3757048 2.480191 -1.7856579 10
33.955791 8.7035952 8.718133 9
33.191174 8.4828882 6.0283012 9
85.536278 6.2105203 5.9795604 16
35.131001 8.9592056 3.8069265 4
74.64724 5.4335165 0 18
12.011353 0.86305577 -1.6832842 10
14.58639 3.7077849 -1.5728792 14
8.2009954 0.58056009 -1.7416508 9
9.6377859 2.4509382 -1.7473361 9
6.2418675 0.43198463 -1.7829777 9
6.9994187 1.7819896 -1.7907828 8
36.834305 5.3095751 8.5700293 20
34.727631 5.0121727 5.5392323 18
19.53467 2.8201187 1.7237227 29
21.765108 3.134172 -1.1544408 29
13.386442 1.923516 -1.653852 12
16.295971 5.3908997 -1.4956557 13
8.8994074 1.2761574 -1.7375302 10
10.350878 3.4284341 -1.72346 13
6.6086617 0.94575405 -1.7782227 9
7.3773837 2.4521205 -1.7839732 12
33.955791 8.7035952 8.718133 9
33.191174 8.4828882 6.0283012 9
91.150345 6.617867 6.372179 255
43.567413 11.103091 4.7218122 20
82.449135 6.0009766 0 13
22.312073 1.6152539 -1.5579523 1
12.011504 0.86095935 -1.6832842 10
14.58639 3.7077849 -1.5728792 14
8.2010965 0.5791288 -1.7416508 9
9.6377859 2.4509382 -1.7473361 9
6.2419434 0.43089521 -1.7829777 9
6.9994187 1.7819896 -1.7907828 8
36.835236 5.3031459 8.5700293 20
34.728504 5.0061116 5.5392323 18
19.535164 2.816709 1.7237227 29
21.765656 3.130373 -1.1544408 29
13.386779 1.9211795 -1.653852 12
16.296909 5.3880558 -1.4956557 13
8.8994074 1.2761574 -1.7375302 10
10.351476 3.4266272 -1.72346 13
6.6088266 0.9446007 -1.7782227 9
7.377811 2.4508328 -1.7839732 12
34.295597 8.6568813 8.7972517 48
34.833675 8.7668915 6.3210425 26
91.186424 6.2845964 6.3730488 254
35.083149 8.8036661 3.7980416 18
74.310013 5.1352572 0 24
62.866577 15.753912 2.2620106 13
22.166069 1.5230652 -1.547341 8
12.009639 0.81659502 -1.68259 10
14.602293 3.654902 -1.5731397 13
8.1982841 0.54874229 -1.7406104 9
9.6419287 2.4144003 -1.7464678 10
6.2386842 0.40770426 -1.7816004 9
7.0059028 1.7563235 -1.7907828 8
36.695194 5.145781 8.5329676 25
34.629246 4.8623161 5.5205016 43
19.557686 2.7468209 1.7248122 35
21.56188 3.0204608 -1.1430199 15
13.413389 1.8748473 -1.6562859 13
16.328388 5.3321576 -1.496743 13
8.9015951 1.243192 -1.7370541 12
10.356925 3.386359 -1.7222853 13
6.6146364 0.92070407 -1.7788693 9
7.3844304 2.4230146 -1.7834119 9
34.295597 8.6568813 8.7972517 48
34.833675 8.7668915 6.3210425 26
91.186424 6.2845964 6.3730488 254
43.923721 11.022626 4.7560453 3
82.690056 5.7139001 0 1
72.330429 18.125801 2.6027172 16
22.166334 1.5191963 -1.547341 8
12.009639 0.81659502 -1.68259 10
14.602294 3.6548958 -1.5731397 13
8.1982841 0.54874229 -1.7406104 9
9.6423502 2.4127173 -1.7464678 10
6.2386842 0.40770426 -1.7816004 9
7.0062094 1.7551006 -1.7907828 8
36.695194 5.145781 8.5329676 25
34.629246 4.8623161 5.5205016 43
19.557686 2.7468209 1.7248122 35
21.56188 3.0204608 -1.1430199 15
13.413389 1.8748473 -1.6562859 13
16.329319 5.3293085 -1.496743 13
8.9018116 1.2416383 -1.7370541 12
10.357516 3.3845513 -1.7222853 13
6.6147966 0.91954952 -1.7788693 9
7.3844304 2.4230146 -1.7834119 9
34.304417 8.5318432 8.7918158 42
35.12215 8.709259 6.3678813 38
91.167992 5.9636555 6.370265 20
35.070225 8.6704073 3.7933381 16
74.195267 4.8671694 0 24
22.231232 1.4456853 -1.5515158 7
34.644512 8.5458927 -1.2510917 13
12.014886 0.77482694 -1.682937 12
14.619792 3.6050935 -1.5736606 14
8.1952686 0.51981437 -1.73957 9
9.650713 2.3790448 -1.7464678 10
6.2328734 0.38548464 -1.7795345 9
7.014648 1.7312156 -1.7913872 8
36.700871 5.0160112 8.5301609 36
34.685146 4.7467632 5.5267448 55
19.589363 2.6815734 1.7267731 28
21.804811 2.9769051 -1.1553597 19
13.419852 1.8280144 -1.6562859 14
16.35256 5.2738056 -1.4971778 12
8.8987961 1.2095673 -1.7356257 10
10.373966 3.3498957 -1.7230684 15
6.6155734 0.8961305 -1.7782227 9
7.3882098 2.3957179 -1.7822888 10
34.304417 8.5318432 8.7918158 42
35.12215 8.709259 6.3678813 38
91.167992 5.9636555 6.370265 20
43.957619 10.876311 4.7557836 3
96.048386 6.2995009 0 1
62.516109 15.434348 2.2474403 1
22.23098 1.4495653 -1.5515158 7
34.644512 8.5458927 -1.2510917 13
12.01475 0.77692401 -1.682937 12
14.619791 3.6050994 -1.5736606 14
8.195178 0.52124476 -1.73957 9
9.6502981 2.380729 -1.7464678 10
6.2328062 0.38657245 -1.7795345 9
7.0143456 1.73244 -1.7913872 8
36.699993 5.0224171 8.5301609 36
34.684319 4.7528162 5.5267448 55
19.588894 2.6849921 1.7267731 28
21.804291 2.9807107 -1.1553597 19
13.419533 1.8303564 -1.6562859 14
16.350719 5.2795134 -1.4971778 12
8.8985844 1.2111205 -1.7356257 10
10.372796 3.3535168 -1.7230684 15
6.6152601 0.89843965 -1.7782227 9
7.3877916 2.3970075 -1.7822888 10
34.410278 8.437108 8.8117466 26
35.375652 8.6477118 6.408648 36
35.387146 8.6309004 3.8246965 80
74.198509 4.620326 0 18
34.722385 8.4494734 1.2466972 3
22.213261 1.3744547 -1.5499504 7
34.682373 8.433322 -1.2514426 25
12.012318 0.73677593 -1.6822429 10
14.646162 3.5601244 -1.5752233 15
8.2017441 0.49435747 -1.7406104 9
9.6509628 2.3469675 -1.7451656 10
6.241251 0.36631909 -1.7816004 9
7.0176954 1.7085955 -1.7907828 8
36.701958 4.8987541 8.5267916 38
34.881012 4.6619725 5.5556216 38
19.676683 2.6305723 1.7337457 30
19.39135 2.5855606 -1.0268407 1
13.442747 1.7881341 -1.6584156 14
16.375254 5.2275376 -1.4978302 10
8.9074173 1.1822499 -1.7365779 10
10.38386 3.3191011 -1.7230684 13
6.6158085 0.87618124 -1.7775761 9
7.402657 2.3747318 -1.7839732 10
34.410278 8.437108 8.8117466 26
35.375652 8.6477118 6.408648 36
37.350914 9.1099796 4.0371504 1
96.166039 5.9870124 0 1
62.824272 15.289588 2.2566886 13
22.213261 1.3744547 -1.5499504 7
34.682373 8.433322 -1.2514426 25
12.012318 0.73677593 -1.6822429 10
14.646162 3.5601244 -1.5752233 15
8.2017441 0.49435747 -1.7406104 9
9.6509628 2.3469675 -1.7451656 10
6.241251 0.36631909 -1.7816004 9
7.0176954 1.7085955 -1.7907828 8
36.701958 4.8987541 8.5267916 38
34.881012 4.6619725 5.5556216 38
19.676683 2.6305723 1.7337457 30
22.019455 2.9357581 -1.1662557 1
13.442747 1.7881341 -1.6584156 14
16.375254 5.2275376 -1.4978302 10
8.9074173 1.1822499 -1.7365779 10
10.38386 3.3191011 -1.7230684 13
6.6158085 0.87618124 -1.7775761 9
7.402657 2.3747318 -1.7839732 10
34.347549 8.2947273 8.7881918 55
35.554031 8.5599136 6.4355369 32
36.903824 8.8645391 3.9854088 1
71.603691 4.2080326 0 13
34.732231 8.3235588 1.2459992 13
22.195515 1.2956038 -1.5483847 7
34.743183 8.3197727 -1.2525824 32
12.019759 0.6951248 -1.682937 10
14.639155 3.5043447 -1.5731397 14
8.2058601 0.46586233 -1.7411306 9
9.6614904 2.3138387 -1.7455996 10
6.2328925 0.34400764 -1.7788457 8
7.0283351 1.6852214 -1.7919916 9
36.65361 4.7621393 8.5116301 29
35.053795 4.5605683 5.580596 34
19.74255 2.5692592 1.738757 29
19.618128 2.546114 -1.0383929 31
13.456289 1.7421539 -1.6593282 15
16.398151 5.1718454 -1.4982651 12
8.9090557 1.150836 -1.7361017 10
10.40009 3.2843232 -1.7238513 13
6.6188273 0.85308248 -1.7775761 10
7.4016137 2.3459277 -1.7817272 10
34.347549 8.2947273 8.7881918 55
35.554031 8.5599136 6.4355369 32
36.905369 8.858098 3.9854088 1
71.603691 4.2080326 0 13
62.695038 15.026516 2.250145 1
22.195515 1.2956038 -1.5483847 7
34.743183 8.3197727 -1.2525824 32
12.019881 0.69302696 -1.682937 10
14.639155 3.5043447 -1.5731397 14
8.2059412 0.46443015 -1.7411306 9
9.6614904 2.3138387 -1.7455996 10
6.2329531 0.34291977 -1.7788457 8
7.0283351 1.6852214 -1.7919916 9
36.654438 4.7557421 8.5116301 29
35.054588 4.55445 5.580596 34
19.742996 2.5658135 1.738757 29
19.61857 2.5426898 -1.0383929 31
13.456593 1.7398053 -1.6593282 15
16.399055 5.168983 -1.4982651 12
8.9090557 1.150836 -1.7361017 10
10.400664 3.2825081 -1.7238513 13
6.6189756 0.85192722 -1.7775761 10
7.4020228 2.3446357 -1.7817272 10
34.355053 8.1697292 8.7827568 58
34.584698 8.1988668 6.2546878 31
35.861755 8.4752636 3.8693821 38
69.790726 3.8571854 0 2
22.090334 1.2121276 -1.5407307 7
34.750126 8.193284 -1.2517933 26
12.022227 0.65106547 -1.682937 12
14.6755 3.4589305 -1.5757443 14
8.2026291 0.43552649 -1.7400903 9
9.6647158 2.2789688 -1.7447313 10
6.2365122 0.32128266 -1.7795345 8
7.0247312 1.6584452 -1.789574 8
36.591053 4.617703 8.4931002 23
34.825287 4.4011097 5.5415735 27
19.771599 2.4993792 1.7405002 25
19.3722 2.4420533 -1.0248715 21
13.474896 1.694369 -1.6608496 15
16.433641 5.1168952 -1.4997873 13
8.9203243 1.120647 -1.7375302 12
10.404989 3.2439754 -1.7226769 12
6.6171165 0.82821882 -1.7762828 10
7.4124875 2.3195124 -1.7822888 10
34.355053 8.1697292 8.7827568 58
34.584698 8.1988668 6.2546878 31
35.861755 8.4752636 3.8693821 38
69.790726 3.8571854 0 2
22.090334 1.2121276 -1.5407307 7
34.750126 8.193284 -1.2517933 26
12.022227 0.65106547 -1.682937 12
14.6755 3.4589305 -1.5757443 14
8.2026291 0.43552649 -1.7400903 9
9.6647158 2.2789688 -1.7447313 10
6.2365122 0.32128266 -1.7795345 8
7.0247312 1.6584452 -1.789574 8
36.591053 4.617703 8.4931002 23
34.825287 4.4011097 5.5415735 27
19.771599 2.4993792 1.7405002 25
19.3722 2.4420533 -1.0248715 21
13.474896 1.694369 -1.6608496 15
16.433641 5.1168952 -1.4997873 13
8.9203243 1.120647 -1.7375302 12
10.404989 3.2439754 -1.7226769 12
6.6171165 0.82821882 -1.7762828 10
7.4124875 2.3195124 -1.7822888 10
34.326672 8.0364819 8.768261 61
34.346973 8.0159655 6.2065482 34
64.905571 3.3489254 4.5308557 4
35.862061 8.3432703 3.8662465 80
47.249802 10.975902 1.6927128 18
22.024693 1.1314411 -1.5358599 7
34.742008 8.0634584 -1.250478 9
12.031846 0.60946935 -1.6839783 10
14.677795 3.4054334 -1.5747024 12
8.2089834 0.40713102 -1.7411306 9
9.6678152 2.2441041 -1.7438631 10
6.237596 0.29951122 -1.7795345 8
7.0375657 1.6355637 -1.7913872 9
36.889854 4.5246348 8.5587988 9
34.766907 4.2704921 5.5298667 32
20.039757 2.4622173 1.7633786 19
19.184841 2.3504491 -1.0145007 9
13.493043 1.648826 -1.6623707 15
16.460924 5.0624304 -1.5006572 14
8.9120007 1.0880177 -1.7351494 13
10.413888 3.2069077 -1.7222853 12
6.6295571 0.80627954 -1.7788693 10
7.4182119 2.2929029 -1.7817272 12
34.326672 8.0364819 8.768261 61
34.346973 8.0159655 6.2065482 34
64.905571 3.3489254 4.5308557 4
35.862061 8.3432703 3.8662465 80
22.024693 1.1314411 -1.5358599 7
34.742008 8.0634584 -1.250478 9
12.031846 0.60946935 -1.6839783 10
14.677795 3.4054334 -1.5747024 12
8.2089834 0.40713102 -1.7411306 9
9.6678152 2.2441041 -1.7438631 10
6.237596 0.29951122 -1.7795345 8
7.0375657 1.6355637 -1.7913872 9
36.889854 4.5246348 8.5587988 9
34.766907 4.2704921 5.5298667 32
20.039757 2.4622173 1.7633786 19
19.184841 2.3504491 -1.0145007 9
13.493043 1.648826 -1.6623707 15
16.460924 5.0624304 -1.5006572 14
8.9120007 1.0880177 -1.7351494 13
10.413888 3.2069077 -1.7222853 12
6.6295571 0.80627954 -1.7788693 10
7.4182119 2.2929029 -1.7817272 12
34.441986 7.9367723 8.7906084 24
34.266766 7.8712139 6.1870322 37
63.190552 3.0394213 4.4103041 13
35.900661 8.2202568 3.8672917 3
67.456192 3.256104 0 22
47.231804 10.798093 1.690706 81
21.968719 1.0517029 -1.5316849 7
38.832687 8.8703909 -1.3967369 2
12.036372 0.56758243 -1.6843253 9
14.69929 3.3563929 -1.5757443 13
8.2079124 0.37836254 -1.7406104 9
9.6779909 2.2108927 -1.7442973 10
6.2314 0.27742037 -1.7774683 7
7.0361376 1.6093636 -1.789574 9
37.014282 4.4087987 8.5840673 3
34.838001 4.1558318 5.5388422 28
20.320255 2.4246874 1.7873464 22
19.222679 2.2870042 -1.0160761 4
13.498715 1.6017163 -1.6623707 15
16.490406 5.0085621 -1.5017444 13
8.9157438 1.0569023 -1.7351494 13
10.417933 3.1683786 -1.7211107 12
6.6227374 0.78200287 -1.7762828 10
7.4354877 2.2698452 -1.7839732 12
34.441986 7.9367723 8.7906084 24
34.266766 7.8712139 6.1870322 37
63.190552 3.0394213 4.4103041 13
38.484169 8.8119593 4.1458602 4
67.456192 3.256104 0 22
47.231804 10.798093 1.690706 81
21.968719 1.0517029 -1.5316849 7
38.832687 8.8703909 -1.3967369 2
12.036372 0.56758243 -1.6843253 9
14.69929 3.3563929 -1.5757443 13
8.2079124 0.37836254 -1.7406104 9
9.6779909 2.2108927 -1.7442973 10
6.2314 0.27742037 -1.7774683 7
7.0361376 1.6093636 -1.789574 9
37.014282 4.4087987 8.5840673 3
34.838001 4.1558318 5.5388422 28
20.320255 2.4246874 1.7873464 22
19.222679 2.2870042 -1.0160761 4
13.498715 1.6017163 -1.6623707 15
16.490406 5.0085621 -1.5017444 13
8.9157438 1.0569023 -1.7351494 13
10.417933 3.1683786 -1.7211107 12
6.6227374 0.78200287 -1.7762828 10
7.4354877 2.2698452 -1.7839732 12
34.600964 7.8399739 8.8238249 2
34.244949 7.7341728 6.1779242 39
63.206249 2.808017 4.4106522 13
38.312458 8.6249695 4.123909 18
37.70821 8.4750843 1.3484293 9
21.890207 0.96755773 -1.5259444 6
38.994133 8.7570229 -1.4013841 4
12.043319 0.52367646 -1.6850195 10
14.716344 3.3035846 -1.5762652 12
8.2116861 0.34837887 -1.7411306 9
9.6812248 2.1743259 -1.7434291 10
6.2371774 0.25477216 -1.7788457 8
7.0443559 1.5840968 -1.7901784 9
35.056602 4.0516381 5.5712309 26
20.437864 2.3627698 1.7969335 15
13.516823 1.5536456 -1.6638919 16
16.51581 4.9502349 -1.5023967 12
8.9219971 1.0244969 -1.7356257 13
10.436569 3.1323059 -1.7222853 12
6.6279583 0.75799781 -1.7769294 10
7.432097 2.2390573 -1.7811656 9
34.600964 7.8399739 8.8238249 2
34.244949 7.7341728 6.1779242 39
63.206249 2.808017 4.4106522 13
38.312458 8.6249695 4.123909 18
47.33688 10.639703 1.6930618 63
21.890207 0.96755773 -1.5259444 6
38.994133 8.7570229 -1.4013841 4
12.043319 0.52367646 -1.6850195 10
14.716344 3.3035846 -1.5762652 12
8.2116861 0.34837887 -1.7411306 9
9.6812248 2.1743259 -1.7434291 10
6.2371774 0.25477216 -1.7788457 8
7.0443559 1.5840968 -1.7901784 9
35.056602 4.0516381 5.5712309 26
20.437864 2.3627698 1.7969335 15
13.516823 1.5536456 -1.6638919 16
16.51581 4.9502349 -1.5023967 12
8.9219971 1.0244969 -1.7356257 13
10.436569 3.1323059 -1.7222853 12
6.6279583 0.75799781 -1.7769294 10
7.432097 2.2390573 -1.7811656 9
34.725204 7.7407932 8.848588 1
34.348652 7.6316819 6.191803 37
63.228127 2.587878 4.4115219 4
36.900417 8.1717806 3.9686844 13
66.20134 2.7209358 0 34
37.652184 8.3245239 1.3453755 81
21.866039 0.89003026 -1.5240309 7
38.9342 8.6009102 -1.3981398 13
12.045074 0.48163429 -1.6850195 9
14.727787 3.2521949 -1.5762652 12
8.2104101 0.31961876 -1.7406104 9
9.7007761 2.143177 -1.7455996 10
6.2356272 0.23291074 -1.778157 7
7.0474739 1.5589731 -1.789574 8
35.141697 3.9372134 5.5825472 16
33.566341 10.014528 6.7957559 1
20.663788 2.3158059 1.8161077 7
90.392601 10.108858 1.5870345 1
71.77565 21.256197 3.9212711 13
13.522163 1.5064536 -1.6638919 15
16.547319 4.8967991 -1.5037016 14
8.9157619 0.99226308 -1.733721 12
10.445074 3.095154 -1.7218938 12
6.6257629 0.73432648 -1.7756361 10
7.4468713 2.2151885 -1.7828503 12
34.725204 7.7407932 8.848588 1
34.348652 7.6316819 6.191803 37
69.420403 2.8409164 4.843802 1
36.900417 8.1717806 3.9686844 13
66.20134 2.7209358 0 34
37.652184 8.3245239 1.3453755 81
21.866039 0.89003026 -1.5240309 7
38.9342 8.6009102 -1.3981398 13
12.045074 0.48163429 -1.6850195 9
14.727787 3.2521949 -1.5762652 12
8.2104101 0.31961876 -1.7406104 9
9.7007761 2.143177 -1.7455996 10
6.2356272 0.23291074 -1.778157 7
7.0474739 1.5589731 -1.789574 8
35.141697 3.9372134 5.5825472 16
33.566341 10.014528 6.7957559 1
20.663788 2.3158059 1.8161077 7
71.77565 21.256197 3.9212711 13
13.522163 1.5064536 -1.6638919 15
16.547319 4.8967991 -1.5037016 14
8.9157619 0.99226308 -1.733721 12
10.445074 3.095154 -1.7218938 12
6.6257629 0.73432648 -1.7756361 10
7.4468713 2.2151885 -1.7828503 12
34.665375 7.6068735 8.8268452 1
34.393009 7.521945 6.195272 34
63.328571 2.3816535 4.4179583 13
37.019623 8.0694962 3.9786146 4
64.788506 2.4477746 0 23
23.498001 5.1127191 0.83854765 2
21.826502 0.81593919 -1.5210735 7
12.058975 0.44213802 -1.6867548 10
14.736059 3.2028091 -1.5760046 14
8.2089815 0.29230455 -1.7400903 9
9.7150469 2.1125674 -1.746902 10
6.2411699 0.21239159 -1.7795345 7
7.0526047 1.5355942 -1.789574 9
35.122643 3.8171902 5.5774741 4
33.554642 9.8899746 6.7867007 30
20.651545 2.2451179 1.8143647 1
90.308823 9.796381 1.5849838 36
71.802612 21.005444 3.9189162 46
13.536953 1.4626694 -1.6651089 14
16.556293 4.8397994 -1.503049 12
8.9092426 0.96164012 -1.7318163 10
10.445802 3.0577214 -1.7203277 12
6.6329641 0.71286553 -1.7769294 10
7.4471655 2.188417 -1.7811656 10
34.665375 7.6068735 8.8268452 1
34.393009 7.521945 6.195272 34
63.328571 2.3816535 4.4179583 13
37.018215 8.0759583 3.9786146 4
64.788506 2.4477746 0 23
37.672253 8.1980257 1.3451138 71
21.826502 0.81593919 -1.5210735 7
12.058898 0.44424269 -1.6867548 10
14.736059 3.2028091 -1.5760046 14
8.20893 0.29373729 -1.7400903 9
9.7150469 2.1125674 -1.746902 10
6.2411323 0.21348086 -1.7795345 7
7.0526047 1.5355942 -1.789574 9
35.121979 3.8233202 5.5774741 4
33.554642 9.8899746 6.7867007 30
20.651154 2.2487221 1.8143647 1
90.307114 9.8121443 1.5849838 36
71.802612 21.005444 3.9189162 46
13.536697 1.4650319 -1.6651089 14
16.555447 4.8426895 -1.503049 12
8.9092426 0.96164012 -1.7318163 10
10.445268 3.0595446 -1.7203277 12
6.6328392 0.71402317 -1.7769294 10
7.4467835 2.1897168 -1.7811656 10
34.719936 7.466568 6.2494831 28
66.083229 2.2540996 4.6096578 28
39.885559 8.5559196 4.2838378 3
63.739777 2.1854372 0 23
23.505932 5.0285726 0.8381986 12
21.804293 0.73890555 -1.519334 7
23.565302 5.0369778 -0.84449571 5
12.050477 0.40181997 -1.6853665 10
14.756875 3.1534309 -1.5770465 15
8.2099047 0.26508099 -1.7400903 10
9.7223606 2.0786428 -1.746902 10
6.2394371 0.1916218 -1.7788457 8
7.0602942 1.5114753 -1.7901784 8
35.130199 3.7001812 5.576694 4
33.466431 9.7371197 6.7619176 66
20.661356 2.1768832 1.8145826 1
90.482513 9.5117455 1.5874708 34
71.530121 20.654921 3.9000752 46
13.544196 1.4180291 -1.6654131 14
16.593786 4.7910948 -1.5050062 12
8.9223089 0.93155289 -1.733721 12
10.460628 3.0244386 -1.7211107 12
6.6256838 0.68986791 -1.7743428 9
7.4497032 2.162348 -1.7800425 10
34.719936 7.466568 6.2494831 28
66.083229 2.2540996 4.6096578 28
42.34243 9.0753469 4.5477719 4
63.739777 2.1854372 0 23
21.804293 0.73890555 -1.519334 7
38.163589 8.1585875 -1.3684145 2
12.050547 0.39971673 -1.6853665 10
14.756875 3.1534309 -1.5770465 15
8.2099514 0.26364809 -1.7400903 10
9.7223606 2.0786428 -1.746902 10
6.23947 0.19053282 -1.7788457 8
7.0602942 1.5114753 -1.7901784 8
35.130844 3.6940498 5.576694 4
33.466431 9.7371197 6.7619176 66
20.661734 2.1732771 1.8145826 1
90.484169 9.4959545 1.5874708 34
71.530121 20.654921 3.9000752 46
13.544444 1.4156651 -1.6654131 14
16.594622 4.7881985 -1.5050062 12
8.9223089 0.93155289 -1.733721 12
10.461155 3.0226123 -1.7211107 12
6.6258039 0.68871152 -1.7743428 9
7.4500804 2.1610479 -1.7800425 10
66.053658 2.0107415 4.6070485 26
34.689686 7.3018565 3.7222586 26
63.437504 1.9423375 0 26
23.533985 4.9444408 0.83854765 3
21.704651 0.65591478 -1.5122018 7
23.55426 4.9444103 -0.84344345 8
12.05688 0.35569093 -1.6860607 9
14.770767 3.099834 -1.5773069 15
8.2010841 0.23328221 -1.7380095 9
9.7275047 2.0424883 -1.7464678 9
6.2353215 0.16753691 -1.7774683 7
7.061039 1.4845883 -1.7889696 8
35.122032 3.5630217 5.5731816 1
33.440563 9.5967846 6.749526 54
20.392048 2.0693936 1.7901789 1
37.605186 10.742869 4.7908716 25
71.225975 20.284546 3.8794026 20
13.55695 1.3667587 -1.6663259 12
16.602478 4.7246141 -1.5041364 13
8.9158964 0.89786285 -1.7318163 10
10.472163 2.9842503 -1.7211107 12
6.6282835 0.66442209 -1.7743428 9
7.4602928 2.1343989 -1.7806041 10
66.053658 2.0107415 4.6070485 26
38.66758 8.1394053 4.1495185 3
63.437504 1.9423375 0 26
35.544075 7.4687991 1.2671134 9
21.704763 0.65212661 -1.5122018 7
23.55426 4.9444103 -0.84344345 8
12.05688 0.35569093 -1.6860607 9
14.770768 3.099828 -1.5773069 15
8.2010841 0.23328221 -1.7380095 9
9.7278614 2.0407903 -1.7464678 9
6.2353215 0.16753691 -1.7774683 7
7.0612979 1.4833559 -1.7889696 8
35.122032 3.5630217 5.5731816 1
33.442238 9.5909481 6.749526 54
20.392048 2.0693936 1.7901789 1
45.681309 13.042414 5.8204203 2
71.229507 20.272116 3.8794026 20
13.55695 1.3667587 -1.6663259 12
16.603304 4.7217169 -1.5041364 13
8.9160528 0.89630675 -1.7318163 10
10.472684 2.9824224 -1.7211107 12
6.6283998 0.66326529 -1.7743428 9
7.4602928 2.1343989 -1.7806041 10
34.116768 7.0817795 6.1315193 32
65.589081 1.7674912 4.5741706 25
35.138611 7.2683773 3.7677283 87
63.193989 1.7141252 0 26
35.613976 7.3537793 1.2686839 71
21.694443 0.57603025 -1.511332 7
35.458435 7.3152008 -1.269418 79
12.065474 0.31379294 -1.687102 9
14.791239 3.0502596 -1.5783488 15
8.2091827 0.20483288 -1.73957 9
9.739748 2.0078166 -1.7473361 10
6.2310638 0.1456615 -1.776091 8
7.0640578 1.4582071 -1.7883654 8
33.489681 9.4781656 6.7523856 47
20.537952 2.011785 1.8023808 1
34.754375 9.7904673 4.4227405 3
71.323875 20.030106 3.8807111 26
17.350931 1.6937416 -0.91486216 2
13.559166 1.3191878 -1.6660216 14
16.641264 4.6697936 -1.5060936 12
8.9166842 0.86494195 -1.7313402 14
10.473523 2.943172 -1.7195446 13
6.6282716 0.6398924 -1.7736963 9
7.465354 2.1076813 -1.7800425 10
34.116768 7.0817795 6.1315193 32
65.589081 1.7674912 4.5741706 25
35.138611 7.2683773 3.7677283 87
63.193989 1.7141252 0 26
35.613976 7.3537793 1.2686839 71
21.69434 0.57981664 -1.511332 7
35.458435 7.3152008 -1.269418 79
12.065474 0.31379294 -1.687102 9
14.791238 3.0502658 -1.5783488 15
8.2091827 0.20483288 -1.73957 9
9.739398 2.0095162 -1.7473361 10
6.2310638 0.1456615 -1.776091 8
