# .PCD v0.7 - Point Cloud Data file format
VERSION 0.7
FIELDS x y z intensity
SIZE 4 4 4 4
TYPE F F F F
COUNT 1 1 1 1
WIDTH 1407
HEIGHT 1
VIEWPOINT 0 0 0 1 0 0 0
POINTS 1407
DATA ascii
4.6775694 -0.64457893 -1.0803791 12
28.687239 -11.772652 6.5781174 43
19.930956 -4.249485 5.0647917 5
28.877708 -11.827333 4.3808208 79
19.952332 -4.2685857 3.5879233 5
29.106268 -11.909137 2.1911488 77
19.982304 -4.2895737 2.1444013 4
17.419992 -7.1222386 0 7
20.012512 -4.3033566 0.71360743 5
9.0131607 -3.6884091 -0.67686385 15
11.995063 -2.5823634 -0.42939419 7
6.2285223 -2.5538099 -0.93882138 13
7.6226406 -1.6418104 -0.8131361 7
4.6773338 -1.9233125 -1.0685039 13
5.6156578 -1.2090719 -1.006726 10
3.7017014 -1.5286872 -1.1376899 9
4.371841 -0.94016141 -1.105414 10
27.188276 -8.9478331 6.5895224 57
20.080641 -2.7839699 5.4151945 6
27.377361 -9.0047922 4.5488434 88
24.500404 -3.4392273 4.7978735 1
26.866117 -8.8366108 2.4713011 51
21.861397 -3.0964811 2.7028704 25
22.216743 -7.3113732 0.40764457 17
22.545641 -3.2133012 1.1916896 30
10.203968 -3.3590996 -0.56304264 9
13.965812 -1.9946977 -0.2456446 7
6.7971406 -2.2396386 -0.87317055 8
8.3331699 -1.1905791 -0.73195362 9
5.0842147 -1.6757777 -1.0318521 10
6.0525489 -0.86278987 -0.96391594 12
3.9889917 -1.3167186 -1.1154306 9
4.6751752 -0.66171873 -1.0803791 10
28.687239 -11.772652 6.5781174 43
19.930956 -4.249485 5.0647917 5
28.877708 -11.827333 4.3808208 79
19.952332 -4.2685857 3.5879233 5
29.106268 -11.909137 2.1911488 77
19.982304 -4.2895737 2.1444013 4
17.419992 -7.1222386 0 7
20.012512 -4.3033566 0.71360743 5
9.012517 -3.6899822 -0.67686385 15
11.995063 -2.5823634 -0.42939419 7
6.2285223 -2.5538099 -0.93882138 13
7.6226387 -1.6418164 -0.8131361 7
4.6773338 -1.9233125 -1.0685039 13
5.615447 -1.2100519 -1.006726 10
3.7017014 -1.5286872 -1.1376899 9
4.3716769 -0.94092435 -1.105414 10
27.188276 -8.9478331 6.5895224 57
20.080154 -2.7874744 5.4151945 6
27.377361 -9.0047922 4.5488434 88
24.499805 -3.4435039 4.7978735 1
26.866117 -8.8366108 2.4713011 51
21.860857 -3.1002967 2.7028704 25
22.216743 -7.3113732 0.40764457 17
22.54508 -3.217236 1.1916896 30
10.203968 -3.3590996 -0.56304264 9
13.965464 -1.9971352 -0.2456446 7
6.7971406 -2.2396386 -0.87317055 8
8.3329611 -1.1920335 -0.73195362 9
5.0839219 -1.6766649 -1.0318521 10
6.0523982 -0.86384618 -0.96391594 12
3.9887617 -1.3174149 -1.1154306 9
4.6751752 -0.66171873 -1.0803791 10
28.758741 -11.913591 6.6035657 46
19.826656 -4.296042 5.0418406 5
28.968725 -11.976964 4.4006529 77
19.837017 -4.3127685 3.5697083 6
29.191084 -12.05702 2.2005422 77
19.87323 -4.3351564 2.1342099 4
17.449425 -7.2019148 0 7
19.944429 -4.3579683 0.71168798 5
9.0117531 -3.7246163 -0.6777336 16
11.991315 -2.6231935 -0.42956957 6
6.2245927 -2.5763466 -0.93951553 12
7.6122947 -1.6660229 -0.81261522 7
4.6686726 -1.9378731 -1.0679836 13
5.604188 -1.2270895 -1.0054237 12
3.7054806 -1.5446621 -1.1404446 10
4.3637929 -0.95438194 -1.1042054 10
27.234734 -9.0633335 6.6080532 86
20.013416 -2.8459008 5.3996859 10
27.441072 -9.1267061 4.5644522 90
24.548981 -3.5334587 4.8097882 1
21.875011 -3.1763332 2.7059128 26
22.239811 -7.4007945 0.40851718 21
22.682514 -3.3136044 1.1995401 32
10.195141 -3.3937075 -0.56317389 9
13.966184 -2.0445192 -0.24577549 7
6.7920308 -2.2629514 -0.87347478 9
8.3240347 -1.218941 -0.73151869 10
5.0760059 -1.6927376 -1.0313759 10
6.0421705 -0.88284642 -0.96274143 10
3.9866617 -1.3314008 -1.1160772 9
4.6681333 -0.6765244 -1.0792561 12
28.758741 -11.913591 6.6035657 46
19.826656 -4.296042 5.0418406 5
28.968725 -11.976964 4.4006529 77
19.837017 -4.3127685 3.5697083 6
29.191084 -12.05702 2.2005422 77
19.873987 -4.3316884 2.1342099 4
17.449425 -7.2019148 0 7
19.944429 -4.3579683 0.71168798 5
9.0124025 -3.7230432 -0.6777336 16
11.991315 -2.6231935 -0.42956957 6
6.2250428 -2.5752604 -0.93951553 12
7.6122961 -1.6660171 -0.81261522 7
4.6690106 -1.9370583 -1.0679836 13
5.6044021 -1.2261114 -1.0054237 12
3.70575 -1.5440155 -1.1404446 10
4.3639593 -0.95362025 -1.1042054 10
27.236313 -9.0585785 6.6080532 86
20.013914 -2.8424079 5.3996859 10
27.442665 -9.1219168 4.5644522 90
24.549597 -3.5291739 4.8097882 1
21.875566 -3.1725152 2.7059128 26
22.241102 -7.3969126 0.40851718 21
22.683092 -3.3096454 1.1995401 32
10.195733 -3.391928 -0.56317389 9
13.966895 -2.0396497 -0.24577549 7
6.7924256 -2.261766 -0.87347478 9
8.3244591 -1.2160354 -0.73151869 10
5.0763016 -1.6918517 -1.0313759 10
6.0424781 -0.8807373 -0.96274143 10
3.9871261 -1.3300091 -1.1160772 9
4.668251 -0.67570972 -1.0792561 12
28.823006 -12.058279 6.627975 45
19.733358 -4.3480062 5.0219107 5
29.040962 -12.12572 4.4180498 77
19.759335 -4.3681746 3.5584323 6
29.263899 -12.206864 2.2092402 71
19.817478 -4.3918939 2.1297674 4
17.433407 -7.2666297 0 7
19.936411 -4.4291859 0.71194971 5
8.9993525 -3.7544799 -0.6777336 18
11.984524 -2.6655772 -0.42965728 6
6.2068796 -2.5931509 -0.93812722 10
7.6137161 -1.6941972 -0.81339657 7
4.657712 -1.9514508 -1.0669433 12
5.6072979 -1.2472682 -1.006726 12
3.6936951 -1.5541382 -1.1383785 10
4.3606038 -0.96884751 -1.1042054 10
27.303808 -9.1870079 6.6321988 90
20.075565 -2.9226732 5.4190722 6
27.487894 -9.2436323 4.5773296 85
24.600258 -3.6241348 4.8221798 2
21.729361 -3.2288246 2.6891797 34
22.324121 -7.511178 0.41052419 21
22.543001 -3.3696377 1.1927364 17
10.205125 -3.4346676 -0.56435537 9
13.981941 -2.0917122 -0.24616817 6
6.7962461 -2.2894258 -0.87499601 8
8.3300171 -1.2465547 -0.73238856 8
5.0750155 -1.7111305 -1.0323282 10
6.0393672 -0.90182406 -0.96274143 12
3.9824593 -1.3439186 -1.1160772 10
4.6706839 -0.69271088 -1.0803791 10
28.823006 -12.058279 6.627975 45
19.733358 -4.3480062 5.0219107 5
29.040962 -12.12572 4.4180498 77
19.759335 -4.3681746 3.5584323 6
29.263899 -12.206864 2.2092402 71
19.81671 -4.3953528 2.1297674 4
17.433407 -7.2666297 0 7
19.936411 -4.4291859 0.71194971 5
8.9986963 -3.7560506 -0.6777336 18
11.984524 -2.6655772 -0.42965728 6
6.2064271 -2.594234 -0.93812722 10
7.6137142 -1.6942031 -0.81339657 7
4.657371 -1.9522638 -1.0669433 12
5.6070805 -1.2482468 -1.006726 12
3.693424 -1.5547829 -1.1383785 10
4.3604345 -0.96960855 -1.1042054 10
27.302204 -9.1917734 6.6321988 90
20.075054 -2.9261773 5.4190722 6
27.486279 -9.2484293 4.5773296 85
24.599623 -3.6284282 4.8221798 2
21.728796 -3.2326169 2.6891797 34
22.322811 -7.5150743 0.41052419 21
22.542416 -3.3735721 1.1927364 17
10.204525 -3.4364488 -0.56435537 9
13.981212 -2.0965867 -0.24616817 6
6.7958469 -2.2906117 -0.87499601 8
8.3295822 -1.2494624 -0.73238856 8
5.074717 -1.7120163 -1.0323282 10
6.039052 -0.90393221 -0.96274143 12
3.9819899 -1.3453087 -1.1160772 10
4.6705632 -0.69352615 -1.0803791 10
28.900244 -12.215268 6.6560206 46
19.634434 -4.4017372 5.0007715 5
29.126335 -12.286943 4.4378819 75
19.726379 -4.4367867 3.5553966 7
29.349953 -12.369265 2.2191556 75
19.858677 -4.4810839 2.136039 5
17.434303 -7.3421273 0 6
19.939541 -4.5066304 0.71264768 6
8.996357 -3.7938571 -0.67860335 13
11.991734 -2.7133415 -0.43027106 7
6.2037177 -2.619858 -0.93916845 10
7.6026034 -1.7210006 -0.81287563 7
4.6569366 -1.972187 -1.0685039 12
5.5976653 -1.2677035 -1.0058578 12
3.6877003 -1.5683095 -1.1383785 10
4.3592172 -0.98611784 -1.1048096 10
27.372097 -9.3271437 6.6574674 89
20.066584 -3.0000927 5.4197183 6
27.555048 -9.3841419 4.5944996 75
24.649252 -3.7280965 4.8345709 3
21.792849 -3.3238177 2.698611 28
22.370829 -7.6226444 0.4119204 29
22.147392 -3.3975716 1.1724563 16
10.201314 -3.4770501 -0.56488049 8
13.993199 -2.1508482 -0.24651723 6
6.7944498 -2.3179097 -0.87590873 9
8.3224831 -1.2796062 -0.73217106 8
5.0753751 -1.7329857 -1.0337567 12
6.0454612 -0.92755079 -0.96430749 10
3.9678929 -1.3567653 -1.1134907 9
4.6655807 -0.71027559 -1.0798177 12
28.900244 -12.215268 6.6560206 46
19.634434 -4.4017372 5.0007715 5
29.126335 -12.286943 4.4378819 75
19.726379 -4.4367867 3.5553966 7
29.343058 -12.366358 2.2186337 75
19.858677 -4.4810839 2.136039 5
17.434303 -7.3421273 0 6
19.939541 -4.5066304 0.71264768 6
8.996357 -3.7938571 -0.67860335 13
11.991734 -2.7133415 -0.43027106 7
6.2037177 -2.619858 -0.93916845 10
7.6026034 -1.7210006 -0.81287563 7
4.6569366 -1.972187 -1.0685039 12
5.5976653 -1.2677035 -1.0058578 12
3.6877003 -1.5683095 -1.1383785 10
4.3592172 -0.98611784 -1.1048096 10
27.372097 -9.3271437 6.6574674 89
20.066584 -3.0000927 5.4197183 6
27.555048 -9.3841419 4.5944996 75
24.649252 -3.7280965 4.8345709 3
21.792849 -3.3238177 2.698611 28
22.370829 -7.6226444 0.4119204 29
22.147392 -3.3975716 1.1724563 16
10.201314 -3.4770501 -0.56488049 8
13.993199 -2.1508482 -0.24651723 6
6.7944498 -2.3179097 -0.87590873 9
8.3224831 -1.2796062 -0.73217106 8
5.0753751 -1.7329857 -1.0337567 12
6.0454612 -0.92755079 -0.96430749 10
3.9678929 -1.3567653 -1.1134907 9
4.6655807 -0.71027559 -1.0798177 12
28.981125 -12.368887 6.6845841 43
19.61895 -4.4702477 5.0007715 6
29.194866 -12.436093 4.4549303 77
19.746775 -4.513844 3.5619018 6
29.400675 -12.511689 2.2262876 60
19.884113 -4.5598192 2.1404815 5
17.424671 -7.4097919 0 6
19.760534 -4.5387483 0.70680201 32
8.987648 -3.8271937 -0.67895126 12
11.991929 -2.757422 -0.4306218 7
6.1968112 -2.6424696 -0.93951553 9
7.6038194 -1.7491984 -0.81365705 7
4.6500244 -1.9884307 -1.0685039 10
5.5932059 -1.2872353 -1.0058578 13
3.6844106 -1.5821229 -1.1390672 10
4.3628426 -1.0029557 -1.1066228 12
27.443012 -9.4583597 6.6827359 87
20.02973 -3.0661058 5.4126096 5
27.636522 -9.5196829 4.6136203 85
24.687021 -3.8219912 4.8445797 4
27.757334 -9.5613108 2.5654292 46
21.795824 -3.4021618 2.7004364 24
22.313364 -7.6900969 0.4113532 37
21.955345 -3.4466324 1.1629049 31
10.207995 -3.5191507 -0.56593072 9
14.007831 -2.2031689 -0.24690992 5
6.7816267 -2.3399928 -0.87530023 9
8.3228865 -1.3094208 -0.73260599 9
5.0692945 -1.7506915 -1.0337567 10
6.0397472 -0.94826663 -0.96391594 12
3.9631329 -1.3706075 -1.1134907 10
4.6630731 -0.7265572 -1.0798177 12
28.981125 -12.368887 6.6845841 43
19.61895 -4.4702477 5.0007715 6
29.194866 -12.436093 4.4549303 77
19.746775 -4.513844 3.5619018 6
29.409857 -12.515598 2.2269838 60
19.884113 -4.5598192 2.1404815 5
17.424671 -7.4097919 0 6
19.760534 -4.5387483 0.70680201 32
8.9883156 -3.8256249 -0.67895126 12
11.991929 -2.757422 -0.4306218 7
6.1968112 -2.6424696 -0.93951553 9
7.6038208 -1.7491926 -0.81365705 7
4.6500244 -1.9884307 -1.0685039 10
5.5934305 -1.2862591 -1.0058578 13
3.6844106 -1.5821229 -1.1390672 10
4.3630171 -1.0021942 -1.1066228 12
27.443012 -9.4583597 6.6827359 87
20.030264 -3.0626101 5.4126096 5
27.636522 -9.5196829 4.6136203 85
24.687687 -3.8176825 4.8445797 4
27.757334 -9.5613108 2.5654292 46
21.796419 -3.3983579 2.7004364 24
22.313364 -7.6900969 0.4113532 37
21.955946 -3.4428 1.1629049 31
10.207995 -3.5191507 -0.56593072 9
14.008216 -2.2007239 -0.24690992 5
6.7816267 -2.3399928 -0.87530023 9
8.3231153 -1.3079681 -0.73260599 9
5.0696006 -1.7498068 -1.0337567 10
6.0399127 -0.94721252 -0.96391594 12
3.963372 -1.3699157 -1.1134907 10
4.6630731 -0.7265572 -1.0798177 12
29.076948 -12.523952 6.7162647 43
19.660746 -4.548399 5.0152669 6
29.276279 -12.585653 4.4737191 69
19.808447 -4.597105 3.5757799 6
29.489637 -12.665234 2.2362034 53
19.936687 -4.641511 2.1477985 4
17.533239 -7.5247483 0 6
19.759975 -4.6076546 0.70732552 176
8.9916172 -3.8623068 -0.68016899 13
12.002184 -2.8017137 -0.43132326 7
6.2016563 -2.6688852 -0.94159794 10
7.6028218 -1.7755278 -0.81417793 7
4.6546264 -2.0086937 -1.0711049 12
5.5915318 -1.3053592 -1.006292 12
3.6857564 -1.5972061 -1.1411333 10
4.3573065 -1.0161071 -1.1060184 13
27.505814 -9.5821772 6.7057586 83
20.022383 -3.1293886 5.4132562 5
27.698082 -9.6437607 4.6292295 88
24.735497 -3.909095 4.8564944 4
27.918335 -9.7204666 2.5832963 61
21.971273 -3.5002499 2.7235587 26
22.155556 -7.7179914 0.40890989 31
22.149025 -3.5483272 1.1737646 22
10.198627 -3.5538039 -0.56606197 10
13.998372 -2.2467692 -0.24686627 4
6.7878871 -2.3673747 -0.87712568 9
8.3187332 -1.3355614 -0.73260599 10
5.0637698 -1.7666085 -1.0337567 10
6.0342999 -0.96684748 -0.96352446 10
3.9633667 -1.3846462 -1.114784 9
4.6534195 -0.74087447 -1.078133 12
29.076948 -12.523952 6.7162647 43
19.660746 -4.548399 5.0152669 6
29.276279 -12.585653 4.4737191 69
19.808447 -4.597105 3.5757799 6
29.489637 -12.665234 2.2362034 53
19.937498 -4.638031 2.1477985 4
17.533239 -7.5247483 0 6
19.759975 -4.6076546 0.70732552 176
8.9916172 -3.8623068 -0.68016899 13
12.002184 -2.8017137 -0.43132326 7
6.2021217 -2.6678026 -0.94159794 10
7.6028218 -1.7755278 -0.81417793 7
4.6549773 -2.0078812 -1.0711049 12
5.5915318 -1.3053592 -1.006292 12
3.6860352 -1.5965629 -1.1411333 10
4.3573065 -1.0161071 -1.1060184 13
27.507486 -9.5773745 6.7057586 83
20.022383 -3.1293886 5.4132562 5
27.699764 -9.6389265 4.6292295 88
24.735497 -3.909095 4.8564944 4
27.920031 -9.7155943 2.5832963 61
21.971273 -3.5002499 2.7235587 26
22.156902 -7.7141242 0.40890989 31
22.149025 -3.5483272 1.1737646 22
10.199245 -3.5520239 -0.56606197 10
13.998762 -2.2443321 -0.24686627 4
6.7882996 -2.3661902 -0.87712568 9
8.3189659 -1.3341095 -0.73260599 10
5.0637698 -1.7666085 -1.0337567 10
6.0344687 -0.96579427 -0.96352446 10
3.9636085 -1.3839544 -1.114784 9
4.6535492 -0.7400623 -1.078133 12
29.12948 -12.667321 6.7385974 43
19.687256 -4.6269865 5.0261383 6
29.343437 -12.736083 4.4907675 57
19.828228 -4.6746922 3.5822854 3
29.566505 -12.820692 2.2454231 61
26.115669 -6.1707697 2.8167808 3
19.700008 -4.6662402 0.70575505 139
8.9803696 -3.8946636 -0.68034297 12
12.011781 -2.8482006 -0.43202478 8
6.1973119 -2.691411 -0.94229209 9
7.6038361 -1.8037757 -0.81495929 7
4.645699 -2.02314 -1.0705847 12
5.58215 -1.323735 -1.0054237 12
3.6760378 -1.6074892 -1.139756 10
4.3513727 -1.0307527 -1.105414 15
27.574993 -9.7089405 6.7304659 82
19.985104 -3.1950729 5.406148 5
27.770769 -9.7724495 4.6467896 70
24.782269 -4.0051918 4.8684092 4
27.937632 -9.8311844 2.5880897 1
22.012804 -3.5856888 2.730252 20
22.000166 -7.7457538 0.40651014 27
21.855625 -3.5796752 1.1588489 31
10.203268 -3.5934122 -0.5669809 10
13.980974 -2.2915688 -0.24669175 4
6.7729783 -2.3873947 -0.87621295 9
8.3142576 -1.3631399 -0.73260599 10
5.0598865 -1.7850908 -1.0342329 10
6.0359344 -0.98764646 -0.96430749 10
3.96103 -1.3985863 -1.1154306 10
4.6485324 -0.75591302 -1.0775715 10
29.12948 -12.667321 6.7385974 43
19.687256 -4.6269865 5.0261383 6
29.343437 -12.736083 4.4907675 57
26.090157 -6.1503353 4.715519 1
29.566505 -12.820692 2.2454231 61
26.11459 -6.1753278 2.8167808 3
19.700008 -4.6662402 0.70575505 139
8.9803696 -3.8946636 -0.68034297 12
12.011781 -2.8482006 -0.43202478 8
6.1968427 -2.6924927 -0.94229209 9
7.6038361 -1.8037757 -0.81495929 7
4.6453457 -2.0239506 -1.0705847 12
5.58215 -1.323735 -1.0054237 12
3.6757574 -1.6081308 -1.139756 10
4.3513727 -1.0307527 -1.105414 15
27.573298 -9.7137537 6.7304659 82
19.985104 -3.1950729 5.406148 5
27.769062 -9.7772961 4.6467896 70
24.782269 -4.0051918 4.8684092 4
27.935913 -9.8360615 2.5880897 1
22.012804 -3.5856888 2.730252 20
21.998814 -7.7495937 0.40651014 27
21.855625 -3.5796752 1.1588489 31
10.202641 -3.5951927 -0.5669809 10
13.980577 -2.2940032 -0.24669175 4
6.7725616 -2.388577 -0.87621295 9
8.3140192 -1.364591 -0.73260599 10
5.0598865 -1.7850908 -1.0342329 10
6.0357618 -0.98869991 -0.96430749 10
3.9607859 -1.3992778 -1.1154306 10
4.6484003 -0.7567243 -1.0775715 10
29.219429 -12.834009 6.770278 44
21.333693 -5.0963411 5.4519281 1
29.437132 -12.905194 4.5123396 54
26.043497 -6.2401843 4.7111821 4
29.651806 -12.987022 2.2555125 43
26.188478 -6.2942343 2.8272336 4
17.620924 -7.7121968 0 6
19.704634 -4.7436738 0.70654023 29
8.9774532 -3.93256 -0.68121272 10
12.015834 -2.8957164 -0.43255085 7
6.1891985 -2.7161834 -0.94263917 10
7.6020083 -1.8327973 -0.81548017 7
4.6334214 -2.0389893 -1.0695442 12
5.5796542 -1.3447617 -1.0058578 13
3.6764302 -1.6245135 -1.141822 10
4.3499246 -1.047261 -1.1060184 18
27.620117 -9.8441963 6.7506804 23
19.975645 -3.2686899 5.4067941 6
27.802826 -9.9038715 4.6584964 2
24.825535 -4.1055956 4.8798475 4
28.016977 -9.980176 2.5989842 1
21.656832 -3.6093075 2.6876583 23
21.876083 -7.7965984 0.40476492 60
22.169851 -3.7145591 1.1762506 20
10.201152 -3.6367564 -0.56763726 12
13.972075 -2.3452291 -0.24669175 4
6.7754459 -2.4175553 -0.87773412 9
8.3065071 -1.3946433 -0.73238856 10
5.0625544 -1.8069273 -1.0361376 10
6.0247912 -1.0095967 -0.96313298 10
3.9510832 -1.412158 -1.1141373 10
4.6552095 -0.77534807 -1.0798177 10
29.219429 -12.834009 6.770278 44
21.333693 -5.0963411 5.4519281 1
29.437132 -12.905194 4.5123396 54
26.043497 -6.2401843 4.7111821 4
29.651806 -12.987022 2.2555125 43
26.188478 -6.2942343 2.8272336 4
17.620924 -7.7121968 0 6
22.692474 -5.4626455 0.81385624 18
8.9767666 -3.9341269 -0.68121272 10
12.015834 -2.8957164 -0.43255085 7
6.1891985 -2.7161834 -0.94263917 10
7.6020064 -1.8328031 -0.81548017 7
4.6334214 -2.0389893 -1.0695442 12
5.5794196 -1.3457355 -1.0058578 13
3.6764302 -1.6245135 -1.141822 10
4.3497415 -1.0480202 -1.1060184 18
27.620117 -9.8441963 6.7506804 23
19.975073 -3.2721763 5.4067941 6
27.802826 -9.9038715 4.6584964 2
24.824816 -4.1099286 4.8798475 4
28.016977 -9.980176 2.5989842 1
21.6562 -3.6130872 2.6876583 23
21.876083 -7.7965984 0.40476492 60
22.169201 -3.7184284 1.1762506 20
10.201152 -3.6367564 -0.56763726 12
13.971665 -2.3476677 -0.24669175 4
6.7754459 -2.4175553 -0.87773412 9
8.306263 -1.3960931 -0.73238856 10
5.0622392 -1.8078107 -1.0361376 10
6.0246153 -1.0106483 -0.96313298 10
3.9508367 -1.4128476 -1.1141373 10
4.6552095 -0.77534807 -1.0798177 10
29.290689 -12.987483 6.7972836 41
21.32756 -5.1736364 5.4549484 6
29.507353 -13.058981 4.5300841 43
26.074188 -6.3438563 4.7207236 4
29.747705 -13.152994 2.2662976 40
26.265387 -6.409771 2.8379478 8
10.224451 -4.5156603 0 32
22.500948 -5.4997211 0.80766159 25
8.9675388 -3.9674578 -0.68156064 13
12.015361 -2.9400158 -0.43290162 7
6.184206 -2.7397797 -0.94333327 10
7.5979772 -1.8599184 -0.81574064 7
4.62851 -2.0561454 -1.0700644 10
5.5770793 -1.3657879 -1.006292 13
3.679512 -1.6412618 -1.1445767 10
4.35077 -1.064348 -1.1072272 17
27.677258 -9.9735889 6.7731419 1
19.954002 -3.3402896 5.4042091 5
27.828489 -10.022621 4.668642 1
24.882914 -4.2088237 4.894145 5
28.026485 -10.093949 2.6031241 1
21.52359 -3.6682565 2.6727507 25
21.879307 -7.8839312 0.40533212 68
21.762354 -3.7284184 1.1553161 14
10.204835 -3.6782713 -0.56855619 13
13.928893 -2.3905151 -0.24608091 5
6.7669659 -2.4411914 -0.87773412 9
8.3087034 -1.426339 -0.73304087 8
5.0512815 -1.823802 -1.0351852 10
6.0210509 -1.0316719 -0.96313298 9
3.9572344 -1.4307399 -1.1173704 10
4.6404643 -0.78956175 -1.07701 12
29.290689 -12.987483 6.7972836 41
21.32756 -5.1736364 5.4549484 6
29.507353 -13.058981 4.5300841 43
26.074188 -6.3438563 4.7207236 4
29.747705 -13.152994 2.2662976 40
26.266502 -6.4051871 2.8379478 8
10.224451 -4.5156603 0 32
22.500948 -5.4997211 0.80766159 25
8.9682322 -3.9658923 -0.68156064 13
12.015361 -2.9400158 -0.43290162 7
6.1846843 -2.7387006 -0.94333327 10
7.5979791 -1.8599125 -0.81574064 7
4.6288686 -2.0553374 -1.0700644 10
5.5773177 -1.3648144 -1.006292 13
3.6797988 -1.6406196 -1.1445767 10
4.350956 -1.0635886 -1.1072272 17
27.678999 -9.9687576 6.7731419 1
19.954584 -3.336807 5.4042091 5
27.830238 -10.017763 4.668642 1
24.883648 -4.2044811 4.894145 5
28.028248 -10.089058 2.6031241 1
21.524231 -3.6645 2.6727507 25
21.880682 -7.8801122 0.40533212 68
21.763006 -3.7246201 1.1553161 14
10.205477 -3.6764903 -0.56855619 13
13.929724 -2.3856587 -0.24608091 5
6.7673922 -2.4400103 -0.87773412 9
8.3092003 -1.4234385 -0.73304087 8
5.0515995 -1.8229203 -1.0351852 10
6.0214105 -1.0295701 -0.96313298 9
3.9577334 -1.4293585 -1.1173704 10
4.6406026 -0.78875184 -1.07701 12
29.370228 -13.139486 6.8258481 40
21.291443 -5.239697 5.4501166 5
29.493273 -13.169887 4.5346074 6
26.177309 -6.4609551 4.7432752 19
10.204464 -4.5494528 0.77688712 1
26.26684 -6.4976263 2.8402996 82
10.168324 -4.5312095 0 32
22.548061 -5.5905342 0.81001729 31
8.9755249 -4.004765 -0.68312627 14
12.022521 -2.9840541 -0.4335154 7
6.1755681 -2.7591946 -0.94333327 10
7.6014228 -1.8874924 -0.81678247 7
4.6331811 -2.0756838 -1.0726655 10
5.5679822 -1.3821175 -1.0054237 12
3.6677661 -1.6498487 -1.1425107 9
4.3521147 -1.0791767 -1.108436 16
27.719044 -10.087152 6.7911105 1
19.931507 -3.4009323 5.4009786 5
27.885044 -10.142075 4.6834707 2
24.932451 -4.2978029 4.9065366 4
28.057831 -10.204936 2.6090071 2
21.289474 -3.6972663 2.6450648 28
21.884964 -7.9637413 0.40589932 62
21.477533 -3.7491713 1.140793 24
10.204959 -3.7145844 -0.56921262 12
13.926661 -2.4326971 -0.24616817 5
6.7732515 -2.4675379 -0.87955964 8
8.3068876 -1.4514122 -0.73325831 8
5.040916 -1.8379791 -1.0342329 10
6.0228286 -1.0503769 -0.96391594 9
3.9484358 -1.4408176 -1.1160772 10
4.6355605 -0.8037225 -1.0764486 10
29.370228 -13.139486 6.8258481 40
21.291443 -5.239697 5.4501166 5
29.493273 -13.169887 4.5346074 6
26.177309 -6.4609551 4.7432752 19
29.772247 -13.28206 2.2715163 1
26.26684 -6.4976263 2.8402996 82
10.168324 -4.5312095 0 32
22.548061 -5.5905342 0.81001729 31
8.9755249 -4.004765 -0.68312627 14
12.022521 -2.9840541 -0.4335154 7
6.1755681 -2.7591946 -0.94333327 10
7.6014228 -1.8874924 -0.81678247 7
4.6331811 -2.0756838 -1.0726655 10
5.5679822 -1.3821175 -1.0054237 12
3.6677661 -1.6498487 -1.1425107 9
4.3521147 -1.0791767 -1.108436 16
27.719044 -10.087152 6.7911105 1
19.931507 -3.4009323 5.4009786 5
27.885044 -10.142075 4.6834707 2
24.932451 -4.2978029 4.9065366 4
28.057831 -10.204936 2.6090071 2
21.289474 -3.6972663 2.6450648 28
21.884964 -7.9637413 0.40589932 62
21.477533 -3.7491713 1.140793 24
10.204959 -3.7145844 -0.56921262 12
13.926661 -2.4326971 -0.24616817 5
6.7732515 -2.4675379 -0.87955964 8
8.3068876 -1.4514122 -0.73325831 8
5.040916 -1.8379791 -1.0342329 10
6.0228286 -1.0503769 -0.96391594 9
3.9484358 -1.4408176 -1.1160772 10
4.6355605 -0.8037225 -1.0764486 10
10.068872 -4.5437746 2.3386438 14
21.280083 -5.3157496 5.4519281 6
10.076432 -4.5387635 1.5483006 34
26.176094 -6.5576758 4.7471786 86
10.127128 -4.5573888 0.77219027 40
26.321165 -6.6086435 2.8486619 89
10.113691 -4.5492268 0 36
22.65683 -5.7015114 0.81464142 24
8.9637651 -4.037096 -0.6833002 15
12.014454 -3.0266125 -0.43360311 8
6.1704111 -2.7827728 -0.94402736 10
7.597199 -1.9146217 -0.81704289 8
4.6259074 -2.0918441 -1.0726655 10
5.5631237 -1.4015449 -1.0054237 12
3.6663589 -1.6646332 -1.1438879 10
4.3436151 -1.0931797 -1.1072272 14
27.793407 -10.224227 6.8180642 2
19.905237 -3.4680016 5.3971009 6
27.981579 -10.287929 4.7057133 2
24.994646 -4.3984041 4.9217877 4
28.103848 -10.332897 2.6166332 3
21.188475 -3.7559845 2.6341124 27
21.910986 -8.0599365 0.40690282 65
21.547888 -3.83899 1.1452415 21
10.203646 -3.7544961 -0.56986898 12
13.97961 -2.4922435 -0.24725896 5
6.7645969 -2.4911661 -0.87955964 9
8.3164835 -1.4830152 -0.73456305 8
5.0413771 -1.8581123 -1.0356613 10
6.0191255 -1.0713941 -0.96391594 9
3.9524434 -1.4579378 -1.1186637 9
4.6375251 -0.82074296 -1.0775715 12
10.068872 -4.5437746 2.3386438 14
21.280083 -5.3157496 5.4519281 6
10.076432 -4.5387635 1.5483006 34
26.176094 -6.5576758 4.7471786 86
10.127128 -4.5573888 0.77219027 40
26.320013 -6.6132374 2.8486619 89
10.113691 -4.5492268 0 36
22.65683 -5.7015114 0.81464142 24
8.9637651 -4.037096 -0.6833002 15
12.014454 -3.0266125 -0.43360311 8
6.1699257 -2.7838495 -0.94402736 10
7.597199 -1.9146217 -0.81704289 8
4.6255422 -2.0926514 -1.0726655 10
5.5631237 -1.4015449 -1.0054237 12
3.6660683 -1.6652731 -1.1438879 10
4.3436151 -1.0931797 -1.1072272 14
27.791622 -10.229077 6.8180642 2
19.905237 -3.4680016 5.3971009 6
27.979782 -10.292813 4.7057133 2
24.994646 -4.3984041 4.9217877 4
28.102043 -10.337803 2.6166332 3
21.188475 -3.7559845 2.6341124 27
21.90958 -8.0637608 0.40690282 65
21.547888 -3.83899 1.1452415 21
10.20299 -3.7562768 -0.56986898 12
13.979177 -2.4946775 -0.24725896 5
6.7641621 -2.4923465 -0.87955964 9
8.3162241 -1.4844667 -0.73456305 8
5.0413771 -1.8581123 -1.0356613 10
6.0189385 -1.0724447 -0.96391594 9
3.9521887 -1.4586277 -1.1186637 9
4.6373816 -0.82155246 -1.0775715 12
10.012101 -4.5623803 2.3292954 37
21.248699 -5.3907275 5.4489088 5
10.014667 -4.5551476 1.5413419 40
26.209148 -6.6681371 4.7575874 89
10.087654 -4.5841494 0.77045077 45
26.379919 -6.7311702 2.8578081 86
10.074193 -4.5759177 0 37
19.701843 -5.035028 0.70889598 105
8.9625273 -4.0761237 -0.68434393 15
12.020226 -3.074959 -0.43421689 7
6.1709428 -2.8115842 -0.94576275 10
7.5949488 -1.9436857 -0.81756383 8
4.6222878 -2.1116266 -1.0737059 12
5.5674906 -1.4243627 -1.0071602 12
3.6621237 -1.6797029 -1.1445767 10
4.3325281 -1.1072937 -1.105414 12
27.884075 -10.379317 6.850071 3
19.878126 -3.5383985 5.3932238 5
28.046019 -10.434047 4.7232738 3
25.024252 -4.4982257 4.9308429 4
28.180674 -10.484159 2.6275277 3
21.174566 -3.8336189 2.6341124 28
21.919703 -8.1588354 0.40764457 65
21.182417 -3.8541071 1.1265314 18
10.20319 -3.7988756 -0.5706566 12
13.982235 -2.5481336 -0.24747711 6
6.7619562 -2.5197225 -0.8804723 9
8.3107271 -1.5149373 -0.73456305 8
5.0299339 -1.8748617 -1.0347091 10
6.014967 -1.094498 -0.96391594 9
3.9490786 -1.4739488 -1.1193103 9
4.6367373 -0.83897507 -1.078133 12
10.012101 -4.5623803 2.3292954 37
21.248699 -5.3907275 5.4489088 5
10.014667 -4.5551476 1.5413419 40
26.209148 -6.6681371 4.7575874 89
10.087654 -4.5841494 0.77045077 45
26.379919 -6.7311702 2.8578081 86
10.074193 -4.5759177 0 37
19.701843 -5.035028 0.70889598 105
8.9618158 -4.0776877 -0.68434393 15
12.020226 -3.074959 -0.43421689 7
6.1709428 -2.8115842 -0.94576275 10
7.5949469 -1.9436914 -0.81756383 8
4.6222878 -2.1116266 -1.0737059 12
5.5672417 -1.4253345 -1.0071602 12
3.6621237 -1.6797029 -1.1445767 10
4.3323345 -1.1080499 -1.105414 12
27.884075 -10.379317 6.850071 3
19.87751 -3.5418677 5.3932238 5
28.046019 -10.434047 4.7232738 3
25.023466 -4.502593 4.9308429 4
28.180674 -10.484159 2.6275277 3
21.173899 -3.8373148 2.6341124 28
21.919703 -8.1588354 0.40764457 65
25.630035 -4.6669979 1.3634825 1
10.20319 -3.7988756 -0.5706566 12
13.981791 -2.5505738 -0.24747711 6
6.7619562 -2.5197225 -0.8804723 9
8.310463 -1.5163878 -0.73456305 8
5.0296063 -1.8757395 -1.0347091 10
6.0147762 -1.0955477 -0.96391594 9
3.9488213 -1.474638 -1.1193103 9
4.6367373 -0.83897507 -1.078133 12
9.9694595 -4.5850296 2.3230634 40
21.225054 -5.4636569 5.4477005 6
9.9829578 -4.5828419 1.5389065 40
26.266769 -6.7805009 4.7723327 79
10.028528 -4.5995631 0.76714557 45
26.442915 -6.8456373 2.8672159 79
10.024075 -4.5954146 0 36
19.67931 -5.1025157 0.70872146 120
8.9565897 -4.113112 -0.68503976 16
12.011837 -3.1175258 -0.43430457 7
6.1588416 -2.832072 -0.94541568 10
7.5881157 -1.970191 -0.81756383 7
4.6193285 -2.1297998 -1.0747464 10
5.566999 -1.4459953 -1.0080284 13
3.6627774 -1.6955115 -1.1466427 10
4.3331375 -1.1243823 -1.1066228 14
27.927479 -10.506615 6.8697243 3
19.841263 -3.6069176 5.3867621 6
28.097252 -10.564912 4.738102 3
25.089668 -4.6049623 4.9470472 4
28.24181 -10.619283 2.6366789 4
21.165253 -3.9121029 2.6347206 28
21.937878 -8.2529049 0.40851718 53
25.670046 -4.7669086 1.3664917 17
10.203886 -3.839746 -0.57144427 12
14.0367 -2.6112299 -0.24861154 6
6.7577639 -2.5450611 -0.88108081 9
8.3026714 -1.5449333 -0.73434561 8
5.0299177 -1.8958837 -1.0361376 10
6.0230551 -1.1187822 -0.9658736 8
3.9368725 -1.485852 -1.1173704 9
4.6265922 -0.853836 -1.0764486 13
9.9694595 -4.5850296 2.3230634 40
21.225054 -5.4636569 5.4477005 6
9.9829578 -4.5828419 1.5389065 40
26.266769 -6.7805009 4.7723327 79
10.028528 -4.5995631 0.76714557 45
26.442915 -6.8456373 2.8672159 79
10.024075 -4.5954146 0 36
19.67931 -5.1025157 0.70872146 120
8.9573078 -4.1115489 -0.68503976 16
12.011837 -3.1175258 -0.43430457 7
6.1588416 -2.832072 -0.94541568 10
7.5881176 -1.9701852 -0.81756383 7
4.6193285 -2.1297998 -1.0747464 10
5.5672512 -1.4450238 -1.0080284 13
3.6627774 -1.6955115 -1.1466427 10
4.333333 -1.1236259 -1.1066228 14
27.927479 -10.506615 6.8697243 3
19.841892 -3.6034551 5.3867621 6
28.097252 -10.564912 4.738102 3
25.090471 -4.6005831 4.9470472 4
28.24181 -10.619283 2.6366789 4
21.165937 -3.9084086 2.6347206 28
21.937878 -8.2529049 0.40851718 53
25.670877 -4.7624288 1.3664917 17
10.203886 -3.839746 -0.57144427 12
14.037155 -2.6087801 -0.24861154 6
6.7577639 -2.5450611 -0.88108081 9
8.3029404 -1.5434842 -0.73434561 8
5.0302482 -1.8950057 -1.0361376 10
6.0232506 -1.117731 -0.9658736 8
3.9371316 -1.485165 -1.1173704 9
4.6265922 -0.853836 -1.0764486 13
9.9142771 -4.599524 2.313715 37
21.18804 -5.5291128 5.4428687 6
9.9429989 -4.6044683 1.5350791 41
26.329887 -6.8899994 4.7879453 77
10.056217 -4.6527076 0.77045077 4
26.509048 -6.9566326 2.8768845 75
9.9747505 -4.6128778 0 36
22.755369 -5.9803567 0.82039988 27
8.9526749 -4.1454248 -0.68573558 15
12.023179 -3.1630583 -0.43509373 6
6.1583977 -2.8566525 -0.94680393 12
7.5863519 -1.9966018 -0.81808472 8
4.6055908 -2.1420074 -1.0731857 10
5.5529041 -1.4609749 -1.006292 12
3.6593118 -1.7086676 -1.1473314 10
4.3272367 -1.137374 -1.1060184 12
27.981293 -10.632922 6.891624 4
19.825083 -3.6683552 5.3854694 6
28.177483 -10.701873 4.7576132 3
25.135389 -4.6950154 4.958962 4
28.374067 -10.776554 2.6523671 4
21.016291 -3.952919 2.6176832 27
22.043573 -8.3762283 0.41100416 39
20.92754 -3.9551325 1.1143633 29
10.198097 -3.8762243 -0.57183808 12
14.038252 -2.657171 -0.24878606 6
6.7608824 -2.5718708 -0.88260204 9
8.3100138 -1.5733192 -0.73543292 8
5.0239363 -1.9116762 -1.0361376 10
6.0146575 -1.1367851 -0.96509057 8
3.9389544 -1.500795 -1.1193103 10
4.6333137 -0.87096441 -1.0786946 12
9.9142771 -4.599524 2.313715 37
21.18804 -5.5291128 5.4428687 6
9.9429989 -4.6044683 1.5350791 41
26.329887 -6.8899994 4.7879453 77
14.593591 -6.7540751 1.1192323 7
26.510263 -6.9520054 2.8768845 75
9.9747505 -4.6128778 0 36
22.755369 -5.9803567 0.82039988 27
8.9526749 -4.1454248 -0.68573558 15
12.023179 -3.1630583 -0.43509373 6
6.158896 -2.8555775 -0.94680393 12
7.5863519 -1.9966018 -0.81808472 8
4.6059647 -2.1412034 -1.0731857 10
5.5529041 -1.4609749 -1.006292 12
3.65961 -1.7080289 -1.1473314 10
4.3272367 -1.137374 -1.1060184 12
27.983149 -10.628037 6.891624 4
19.825083 -3.6683552 5.3854694 6
28.179352 -10.696954 4.7576132 3
25.135389 -4.6950154 4.958962 4
28.375948 -10.771602 2.6523671 4
21.016291 -3.952919 2.6176832 27
22.045034 -8.3723803 0.41100416 39
20.92754 -3.9551325 1.1143633 29
10.198773 -3.8744445 -0.57183808 12
14.038714 -2.6547265 -0.24878606 6
6.7613316 -2.5706909 -0.88260204 9
8.3102875 -1.5718687 -0.73543292 8
5.0239363 -1.9116762 -1.0361376 10
6.0148559 -1.1357354 -0.96509057 8
3.9392161 -1.5001075 -1.1193103 10
4.6334653 -0.87015569 -1.0786946 12
9.8826599 -4.6268392 2.3100796 40
21.154539 -5.5993171 5.4392452 5
9.9066839 -4.6297064 1.5319477 38
26.386589 -7.0033345 4.802691 70
14.475033 -6.7606249 1.1119262 7
26.579544 -7.0694175 2.8870761 72
9.9404669 -4.6392026 0 37
22.775396 -6.0706873 0.82188308 34
8.9404097 -4.1777072 -0.68590957 16
12.014479 -3.2056518 -0.43518141 6
6.1511326 -2.8781095 -0.94715101 12
7.5817389 -2.0237117 -0.81834519 7
4.6006756 -2.1583085 -1.0737059 12
5.5525279 -1.4816171 -1.0071602 13
3.6536255 -1.720793 -1.1473314 10
4.3255844 -1.1530958 -1.1066228 14
28.059595 -10.769304 6.9197001 4
19.807411 -3.7366409 5.3841772 5
28.259422 -10.840364 4.7775149 4
25.215284 -4.8010693 4.9780259 5
28.447462 -10.912516 2.6626079 4
20.870758 -4.0010552 2.6012542 25
22.12302 -8.4904861 0.41301116 26
20.678251 -3.9828792 1.1018027 1
10.201501 -3.9162867 -0.57275701 14
14.06618 -2.710798 -0.24944052 6
6.7569489 -2.5960572 -0.88321048 9
8.2974138 -1.5994574 -0.73478055 7
5.0263944 -1.9327273 -1.0380422 10
6.0132799 -1.157189 -0.96548206 8
3.9339557 -1.5138488 -1.1193103 9
4.6256137 -0.88541293 -1.0775715 10
9.8826599 -4.6268392 2.3100796 40
21.154539 -5.5993171 5.4392452 5
9.9066839 -4.6297064 1.5319477 38
26.386589 -7.0033345 4.802691 70
14.475033 -6.7606249 1.1119262 7
26.57831 -7.0740566 2.8870761 72
9.9404669 -4.6392026 0 37
22.775396 -6.0706873 0.82188308 34
8.9396801 -4.1792684 -0.68590957 16
12.014479 -3.2056518 -0.43518141 6
6.15063 -2.8791828 -0.94715101 12
7.581737 -2.0237176 -0.81834519 7
4.6002984 -2.1591117 -1.0737059 12
5.5522695 -1.4825863 -1.0071602 13
3.6533251 -1.7214307 -1.1473314 10
4.3253832 -1.1538508 -1.1066228 14
28.057714 -10.774201 6.9197001 4
19.806759 -3.740098 5.3841772 5
28.25753 -10.845297 4.7775149 4
25.214447 -4.80547 4.9780259 5
28.445559 -10.91748 2.6626079 4
20.87006 -4.0046978 2.6012542 25
22.121538 -8.4943466 0.41301116 26
20.677555 -3.9864881 1.1018027 1
10.200817 -3.9180672 -0.57275701 14
14.065234 -2.7157023 -0.24944052 6
6.7564955 -2.5972366 -0.88321048 9
8.296855 -1.6023536 -0.73478055 7
5.0260572 -1.9336045 -1.0380422 10
6.0128756 -1.1592879 -0.96548206 8
3.9334271 -1.5152218 -1.1193103 9
4.6254592 -0.88622028 -1.0775715 10
9.8346891 -4.6483879 2.3028085 36
21.108101 -5.6698937 5.4326015 6
9.8605471 -4.6522417 1.5274246 39
26.443953 -7.1224031 4.8178701 69
14.380237 -6.7806416 1.1065335 5
26.655418 -7.1992922 2.8983128 72
9.8894796 -4.6596084 0 37
22.803642 -6.1678176 0.82371533 31
8.9355764 -4.2173324 -0.68677932 17
12.017119 -3.2535806 -0.43570754 5
6.1512251 -2.9070032 -0.94888639 10
7.583869 -2.0540898 -0.81938702 8
4.5989809 -2.1791046 -1.0752665 10
5.5515518 -1.5042124 -1.0080284 12
3.6469913 -1.7348092 -1.1473314 10
4.3140988 -1.1677979 -1.1048096 13
28.083895 -10.902537 6.9359846 6
19.788174 -3.8117557 5.3828845 5
28.353413 -11.001503 4.8005381 4
25.247259 -4.9076791 4.9880342 4
28.602703 -11.098253 2.6811285 66
20.545954 -4.0207081 2.5626156 1
22.493372 -8.7318897 0.42055935 28
20.596661 -4.0492597 1.0982699 3
10.200352 -3.9608531 -0.57354468 17
14.057639 -2.7677178 -0.24948417 6
6.7538691 -2.6246812 -0.88412321 9
8.2958126 -1.6337119 -0.73521543 7
5.0143623 -1.9502324 -1.0370898 10
6.0061631 -1.1808439 -0.96509057 9
3.9233472 -1.5278739 -1.1180171 10
4.62218 -0.90316749 -1.0775715 10
9.8346891 -4.6483879 2.3028085 36
21.108101 -5.6698937 5.4326015 6
9.8605471 -4.6522417 1.5274246 39
26.443953 -7.1224031 4.8178701 69
14.380237 -6.7806416 1.1065335 5
26.655418 -7.1992922 2.8983128 72
9.8894796 -4.6596084 0 37
22.803642 -6.1678176 0.82371533 31
8.9355764 -4.2173324 -0.68677932 17
12.017119 -3.2535806 -0.43570754 5
6.1512251 -2.9070032 -0.94888639 10
7.583869 -2.0540898 -0.81938702 8
4.5989809 -2.1791046 -1.0752665 10
5.5515518 -1.5042124 -1.0080284 12
3.6469913 -1.7348092 -1.1473314 10
4.3140988 -1.1677979 -1.1048096 13
28.083895 -10.902537 6.9359846 6
19.788174 -3.8117557 5.3828845 5
28.353413 -11.001503 4.8005381 4
25.247259 -4.9076791 4.9880342 4
28.602703 -11.098253 2.6811285 66
20.545954 -4.0207081 2.5626156 1
22.493372 -8.7318897 0.42055935 28
20.596661 -4.0492597 1.0982699 3
10.200352 -3.9608531 -0.57354468 17
14.057639 -2.7677178 -0.24948417 6
6.7538691 -2.6246812 -0.88412321 9
8.2958126 -1.6337119 -0.73521543 7
5.0143623 -1.9502324 -1.0370898 10
6.0061631 -1.1808439 -0.96509057 9
3.9233472 -1.5278739 -1.1180171 10
4.62218 -0.90316749 -1.0775715 10
9.7927351 -4.6683364 2.2965763 35
21.068117 -5.734128 5.4271665 6
9.8093042 -4.6678805 1.5218576 38
26.503325 -7.2327366 4.8330493 74
14.20229 -6.7543435 1.0945306 14
26.705742 -7.3079834 2.906414 85
9.8491402 -4.6805649 0 36
22.833668 -6.2572651 0.82554752 36
8.9327993 -4.2523046 -0.68764913 17
12.013492 -3.2953947 -0.43597057 5
6.1415515 -2.9273853 -0.94888639 12
7.5842094 -2.0811996 -0.82016838 7
4.593935 -2.1953998 -1.0757867 12
5.5560308 -1.5252174 -1.0097649 12
3.6368866 -1.7448097 -1.145954 10
4.3078637 -1.1814573 -1.1042054 12
28.197277 -11.054299 6.9730458 9
19.768312 -3.875962 5.3809457 5
28.482309 -11.160338 4.8286343 79
20.444576 -4.0454044 4.040565 5
28.660812 -11.230299 2.690062 81
20.491133 -4.0805888 2.5574436 2
22.524797 -8.8301563 0.42169377 30
20.465607 -4.0940571 1.0919896 3
10.198781 -3.9992154 -0.57420105 14
14.038581 -2.8123586 -0.24930963 5
6.7381992 -2.6443422 -0.88321048 9
8.2879086 -1.6607249 -0.73499799 8
5.0124354 -1.9686457 -1.0380422 10
6.0022144 -1.2007546 -0.96509057 9
3.9250002 -1.5435299 -1.119957 9
4.6119905 -0.917072 -1.075887 10
9.7927351 -4.6683364 2.2965763 35
21.068117 -5.734128 5.4271665 6
9.8093042 -4.6678805 1.5218576 38
26.503325 -7.2327366 4.8330493 74
14.20229 -6.7543435 1.0945306 14
26.707018 -7.3033223 2.906414 85
9.8491402 -4.6805649 0 36
22.833668 -6.2572651 0.82554752 36
8.9335413 -4.2507453 -0.68764913 17
12.013492 -3.2953947 -0.43597057 5
6.1420622 -2.9263134 -0.94888639 12
7.5842113 -2.0811939 -0.82016838 7
4.5943184 -2.194598 -1.0757867 12
5.5562973 -1.5242476 -1.0097649 12
3.6371911 -1.7441748 -1.145954 10
4.3080702 -1.1807053 -1.1042054 12
28.199205 -11.049378 6.9730458 9
19.76899 -3.8725121 5.3809457 5
28.484257 -11.155367 4.8286343 79
20.445284 -4.0418363 4.040565 5
28.662771 -11.225296 2.690062 81
20.491844 -4.0770121 2.5574436 2
22.526339 -8.8262253 0.42169377 30
20.46632 -4.0904851 1.0919896 3
10.199479 -3.9974351 -0.57420105 14
14.039559 -2.8074639 -0.24930963 5
6.7386603 -2.6431663 -0.88321048 9
8.2884874 -1.6578318 -0.73499799 8
5.0127792 -1.9677708 -1.0380422 10
6.0026331 -1.1986594 -0.96509057 9
3.9255383 -1.5421597 -1.119957 9
4.6121502 -0.91626698 -1.075887 10
9.7411261 -4.6855173 2.2882667 36
21.036278 -5.804409 5.4241462 6
9.7639427 -4.6881514 1.5173346 40
26.549107 -7.3448958 4.8460603 71
9.9363194 -4.7667508 0.76627576 4
26.770014 -7.4210711 2.9160826 79
9.8102036 -4.7040977 0 37
22.89113 -6.3589935 0.82842678 38
8.9208975 -4.2829847 -0.68782312 15
12.021174 -3.3426611 -0.43667206 5
6.1407328 -2.9520311 -0.95027465 10
7.5840874 -2.1096523 -0.82094967 8
4.5844283 -2.2095582 -1.0752665 13
5.5390806 -1.5403396 -1.0075943 12
3.6397297 -1.7610565 -1.1487087 12
4.3085971 -1.1970326 -1.105414 13
28.346197 -11.221281 7.0190911 81
19.764826 -3.9433827 5.3835306 6
28.523212 -11.285621 4.8419018 81
20.361277 -4.0991483 4.0267439 5
28.739202 -11.3711 2.7009566 81
20.360748 -4.1248937 2.5428402 3
22.488419 -8.9020414 0.42156285 32
20.376078 -4.1464849 1.0879337 4
10.187785 -4.0339341 -0.57433236 14
14.029674 -2.8564539 -0.24930963 5
6.7386203 -2.6703312 -0.88442749 10
8.2850895 -1.6872494 -0.73521543 7
5.0081606 -1.9861622 -1.0385183 10
5.9959917 -1.2191149 -0.96469903 9
3.9223759 -1.5567447 -1.1206036 9
4.6137004 -0.93332225 -1.07701 10
9.7411261 -4.6855173 2.2882667 36
21.036278 -5.804409 5.4241462 6
9.7639427 -4.6881514 1.5173346 40
26.549107 -7.3448958 4.8460603 71
14.288787 -6.8567762 1.1030544 3
26.768717 -7.4257436 2.9160826 79
9.8102036 -4.7040977 0 37
22.89113 -6.3589935 0.82842678 38
8.9208975 -4.2829847 -0.68782312 15
12.021174 -3.3426611 -0.43667206 5
6.1402173 -2.9531031 -0.95027465 10
7.5840874 -2.1096523 -0.82094967 8
4.5840421 -2.2103581 -1.0752665 13
5.5390806 -1.5403396 -1.0075943 12
3.6394227 -1.7616918 -1.1487087 12
4.3085971 -1.1970326 -1.105414 13
28.344238 -11.226228 7.0190911 81
19.764826 -3.9433827 5.3835306 6
28.521242 -11.290599 4.8419018 81
20.361277 -4.0991483 4.0267439 5
28.737217 -11.376116 2.7009566 81
20.360748 -4.1248937 2.5428402 3
22.486864 -8.9059658 0.42156285 32
20.376078 -4.1464849 1.0879337 4
10.18708 -4.0357118 -0.57433236 14
14.029176 -2.8588965 -0.24930963 5
6.7381535 -2.6715071 -0.88442749 10
8.2847948 -1.6886955 -0.73521543 7
5.0081606 -1.9861622 -1.0385183 10
5.995779 -1.2201614 -0.96469903 9
3.9221039 -1.5574293 -1.1206036 9
4.6135373 -0.93412745 -1.07701 10
9.704092 -4.7115679 2.2835925 37
20.998508 -5.8768964 5.4199185 6
9.7266493 -4.7141814 1.5142032 36
26.61446 -7.4680891 4.8629742 70
9.8806295 -4.7846451 0.76331848 32
26.782009 -7.5352507 2.9205251 35
9.7681484 -4.7280326 0 36
22.959055 -6.4685893 0.83174217 36
8.916358 -4.321095 -0.68869287 16
12.011247 -3.3873761 -0.43675974 5
6.1338058 -2.9777534 -0.9509688 10
7.5834837 -2.1394584 -0.82173109 8
4.5825033 -2.2303605 -1.076827 12
5.5428777 -1.5633008 -1.0093309 12
3.6350992 -1.7760764 -1.1493975 12
4.3041811 -1.2128164 -1.105414 10
28.377535 -11.35992 7.037621 81
19.740772 -4.013875 5.3809457 6
28.603468 -11.4446 4.8629737 81
20.249949 -4.1540427 4.0076799 5
28.82019 -11.531333 2.7127225 81
20.262861 -4.1824551 2.532496 3
22.430866 -8.9790344 0.42112654 35
20.267843 -4.2019005 1.0829617 4
10.188442 -4.0795202 -0.57525128 15
14.006367 -2.9077606 -0.24909148 6
6.7375298 -2.6998799 -0.88564444 10
8.2785501 -1.7190495 -0.73521543 7
5.0054035 -2.0063324 -1.0394707 10
5.9912667 -1.2421288 -0.96469903 9
3.9208512 -1.5735948 -1.1218969 10
4.619628 -0.95299 -1.0792561 10
9.704092 -4.7115679 2.2835925 37
20.998508 -5.8768964 5.4199185 6
9.7266493 -4.7141814 1.5142032 36
26.61446 -7.4680891 4.8629742 70
9.8806295 -4.7846451 0.76331848 32
26.782009 -7.5352507 2.9205251 35
9.7681484 -4.7280326 0 36
22.959055 -6.4685893 0.83174217 36
8.9156036 -4.3226509 -0.68869287 16
12.011247 -3.3873761 -0.43675974 5
6.1338058 -2.9777534 -0.9509688 10
7.5834818 -2.1394641 -0.82173109 8
4.5825033 -2.2303605 -1.076827 12
5.5426049 -1.5642682 -1.0093309 12
3.6350992 -1.7760764 -1.1493975 12
4.3039694 -1.2135675 -1.105414 10
28.377535 -11.35992 7.037621 81
19.740072 -4.0173206 5.3809457 6
28.603468 -11.4446 4.8629737 81
20.249224 -4.1575775 4.0076799 5
28.82019 -11.531333 2.7127225 81
20.262131 -4.1859913 2.532496 3
22.430866 -8.9790344 0.42112654 35
20.267109 -4.2054377 1.0829617 4
10.188442 -4.0795202 -0.57525128 15
14.005858 -2.9102051 -0.24909148 6
6.7375298 -2.6998799 -0.88564444 10
8.2782497 -1.7204944 -0.73521543 7
5.005053 -2.0072057 -1.0394707 10
5.9910498 -1.2431744 -0.96469903 9
3.9205763 -1.5742791 -1.1218969 10
4.619628 -0.95299 -1.0792561 10
9.6546516 -4.7292638 2.2758021 36
20.968529 -5.9475121 5.4175029 6
9.6767807 -4.7317791 1.5089842 36
26.630857 -7.5730643 4.8707805 16
9.8459444 -4.8103409 0.76192689 34
26.671854 -7.6048365 2.9113789 40
9.7201395 -4.7467303 0 37
23.00601 -6.5685787 0.83427238 38
8.9049406 -4.3559399 -0.68904078 16
12.018569 -3.4347723 -0.43746123 6
6.1300421 -3.0024173 -0.95201004 10
7.5783582 -2.1666055 -0.82199156 8
4.570302 -2.2441838 -1.0757867 12
5.5371108 -1.5836061 -1.0093309 12
3.6267231 -1.7876897 -1.1487087 12
4.2903757 -1.2259223 -1.1029966 12
28.47547 -11.514623 7.0718741 81
19.697552 -4.0803304 5.3731918 5
28.670946 -11.587871 4.8813143 80
20.138491 -4.2081766 3.9886162 5
28.8929 -11.677598 2.7233992 79
20.169687 -4.2403741 2.5227602 3
22.431829 -9.0703983 0.42173737 37
20.179024 -4.2607002 1.0790366 4
10.181083 -4.1178684 -0.57564509 17
14.000506 -2.9601092 -0.24917875 6
6.7303638 -2.7243133 -0.88594866 10
8.2770681 -1.7504083 -0.7356503 7
5.0025649 -2.0265088 -1.040423 10
5.9818416 -1.2630631 -0.96391594 9
3.9150572 -1.5879549 -1.1218969 10
4.6138887 -0.96861148 -1.0786946 10
9.6546516 -4.7292638 2.2758021 36
20.968529 -5.9475121 5.4175029 6
9.6767807 -4.7317791 1.5089842 36
26.630857 -7.5730643 4.8707805 16
9.8459444 -4.8103409 0.76192689 34
26.671854 -7.6048365 2.9113789 40
9.7201395 -4.7467303 0 37
23.00601 -6.5685787 0.83427238 38
8.9056997 -4.3543854 -0.68904078 16
12.018569 -3.4347723 -0.43746123 6
6.1300421 -3.0024173 -0.95201004 10
7.5783601 -2.1665998 -0.82199156 8
4.570302 -2.2441838 -1.0757867 12
5.5373874 -1.5826396 -1.0093309 12
3.6267231 -1.7876897 -1.1487087 12
4.2905893 -1.2251734 -1.1029966 12
28.47547 -11.514623 7.0718741 81
19.698263 -4.0768924 5.3731918 5
28.670946 -11.587871 4.8813143 80
20.139225 -4.2046618 3.9886162 5
28.8929 -11.677598 2.7233992 79
20.170425 -4.2368536 2.5227602 3
22.431829 -9.0703983 0.42173737 37
20.179766 -4.2571783 1.0790366 4
10.181083 -4.1178684 -0.57564509 17
14.001023 -2.9576657 -0.24917875 6
6.7303638 -2.7243133 -0.88594866 10
8.2773733 -1.7489636 -0.7356503 7
5.0029187 -2.0256357 -1.040423 10
5.9820619 -1.2620189 -0.96391594 9
3.9153345 -1.5872716 -1.1218969 10
4.6138887 -0.96861148 -1.0786946 10
9.6191864 -4.7514987 2.2711279 37
20.925377 -6.0103192 5.4114633 6
9.6321754 -4.7495975 1.5044611 36
26.740461 -7.7001576 4.8955007 3
9.8098087 -4.8330369 0.76036125 32
26.691877 -7.7063417 2.9163442 41
9.6819229 -4.7678843 0 37
23.041708 -6.6614823 0.83636642 38
8.9046297 -4.3905163 -0.69008446 14
12.035914 -3.4829376 -0.43851346 7
6.1133947 -3.0194356 -0.9509688 10
7.5782995 -2.1937909 -0.82277292 8
4.5715961 -2.2636745 -1.0778675 12
5.5344734 -1.6016771 -1.0097649 12
3.6272271 -1.8029221 -1.1507747 10
4.2888341 -1.2400674 -1.103601 13
28.538622 -11.650427 7.0971432 80
19.670454 -4.1392112 5.3693142 6
28.767254 -11.737932 4.9043379 79
20.050747 -4.2556443 3.9738419 5
28.978533 -11.824161 2.7351651 77
20.039776 -4.278873 2.5081565 4
22.484934 -9.17875 0.42330807 32
20.075211 -4.3047261 1.0741955 4
10.18355 -4.158217 -0.57656401 17
14.010691 -3.0082703 -0.24952778 5
6.7327771 -2.7513132 -0.88746989 10
8.2715273 -1.7764028 -0.7356503 7
4.9939022 -2.0412855 -1.0399469 10
5.9826732 -1.282881 -0.96469903 10
3.9122837 -1.601162 -1.1225435 9
4.615417 -0.98491853 -1.0798177 12
9.6191864 -4.7514987 2.2711279 37
20.925377 -6.0103192 5.4114633 6
9.6321754 -4.7495975 1.5044611 36
26.740461 -7.7001576 4.8955007 3
9.8098087 -4.8330369 0.76036125 32
26.691877 -7.7063417 2.9163442 41
9.6819229 -4.7678843 0 37
23.041708 -6.6614823 0.83636642 38
8.9046297 -4.3905163 -0.69008446 14
12.035914 -3.4829376 -0.43851346 7
6.1133947 -3.0194356 -0.9509688 10
7.5782995 -2.1937909 -0.82277292 8
4.5715961 -2.2636745 -1.0778675 12
5.5344734 -1.6016771 -1.0097649 12
3.6272271 -1.8029221 -1.1507747 10
4.2888341 -1.2400674 -1.103601 13
28.538622 -11.650427 7.0971432 80
19.670454 -4.1392112 5.3693142 6
28.767254 -11.737932 4.9043379 79
20.050747 -4.2556443 3.9738419 5
28.978533 -11.824161 2.7351651 77
20.039776 -4.278873 2.5081565 4
22.484934 -9.17875 0.42330807 32
20.075211 -4.3047261 1.0741955 4
10.18355 -4.158217 -0.57656401 17
14.010691 -3.0082703 -0.24952778 5
6.7327771 -2.7513132 -0.88746989 10
8.2715273 -1.7764028 -0.7356503 7
4.9939022 -2.0412855 -1.0399469 10
5.9826732 -1.282881 -0.96469903 10
3.9122837 -1.601162 -1.1225435 9
4.615417 -0.98491853 -1.0798177 12
9.5762825 -4.7719488 2.2648959 36
20.883303 -6.0772262 5.4060273 6
9.5978079 -4.7743635 1.5016776 36
26.69451 -7.7879372 4.8920312 1
9.7683163 -4.855031 0.75844777 31
26.755499 -7.825984 2.9262743 47
9.6316423 -4.7849536 0 37
23.063871 -6.7552118 0.83802408 37
8.8914833 -4.4226851 -0.6902585 15
12.028478 -3.526334 -0.43868881 7
6.1161089 -3.0473897 -0.95305121 10
7.5729809 -2.2209294 -0.82303333 8
4.5702271 -2.282902 -1.0794282 10
5.5312114 -1.6216781 -1.010199 12
3.6209116 -1.8155725 -1.1507747 10
4.2798223 -1.253669 -1.1023922 10
28.605881 -11.794552 7.1240964 79
19.6488 -4.2063336 5.3673759 6
28.840258 -11.885326 4.9238491 73
19.937412 -4.3043966 3.9543018 5
29.066029 -11.978389 2.7473669 77
19.956816 -4.3340683 2.4996378 4
22.741613 -9.376298 0.42876196 29
19.962488 -4.3535185 1.0689619 4
10.18282 -4.1994519 -0.57735169 19
14.026969 -3.0630157 -0.25000775 5
6.7208385 -2.7738509 -0.88716567 10
8.2725773 -1.8068554 -0.73630273 6
4.9935513 -2.0615168 -1.0413753 10
5.9636812 -1.3006107 -0.96234995 9
3.9089022 -1.615732 -1.12319 9
4.6024261 -0.99896574 -1.0775715 10
9.5762825 -4.7719488 2.2648959 36
20.883303 -6.0772262 5.4060273 6
9.5978079 -4.7743635 1.5016776 36
26.69451 -7.7879372 4.8920312 1
9.7683163 -4.855031 0.75844777 31
26.755499 -7.825984 2.9262743 47
9.6316423 -4.7849536 0 37
23.063871 -6.7552118 0.83802408 37
8.8914833 -4.4226851 -0.6902585 15
12.028478 -3.526334 -0.43868881 7
6.1161089 -3.0473897 -0.95305121 10
7.5729809 -2.2209294 -0.82303333 8
4.5702271 -2.282902 -1.0794282 10
5.5312114 -1.6216781 -1.010199 12
3.6209116 -1.8155725 -1.1507747 10
4.2798223 -1.253669 -1.1023922 10
28.605881 -11.794552 7.1240964 79
19.6488 -4.2063336 5.3673759 6
28.840258 -11.885326 4.9238491 73
19.937412 -4.3043966 3.9543018 5
29.066029 -11.978389 2.7473669 77
19.956816 -4.3340683 2.4996378 4
22.741613 -9.376298 0.42876196 29
19.962488 -4.3535185 1.0689619 4
10.18282 -4.1994519 -0.57735169 19
14.026969 -3.0630157 -0.25000775 5
6.7208385 -2.7738509 -0.88716567 10
8.2725773 -1.8068554 -0.73630273 6
4.9935513 -2.0615168 -1.0413753 10
5.9636812 -1.3006107 -0.96234995 9
3.9089022 -1.615732 -1.12319 9
4.6024261 -0.99896574 -1.0775715 10
9.5412521 -4.7982187 2.260741 36
20.844601 -6.1489239 5.4017997 6
9.5492764 -4.7939472 1.4968066 36
26.816895 -7.9303985 4.9197874 3
9.7905741 -4.910943 0.76157898 31
26.831522 -7.9550843 2.9377725 38
