# .PCD v0.7 - Point Cloud Data file format
VERSION 0.7
FIELDS x y z intensity
SIZE 4 4 4 4
TYPE F F F F
COUNT 1 1 1 1
WIDTH 1633
HEIGHT 1
VIEWPOINT 0 0 0 1 0 0 0
POINTS 1633
DATA ascii
nan nan nan 0
19.041206 14.094256 6.3295746 1
22.725281 11.179126 3.9966762 19
17.924498 13.219033 4.3184195 24
22.41888 11.028417 2.1828156 20
43.689236 32.146015 6.6461287 1
63.89423 31.413986 1.2421749 37
nan nan nan 0
nan nan nan 0
nan nan nan 0
13.727102 6.7415223 -1.8707755 5
17.541317 12.87974 -1.8970777 5
7.9754391 3.915864 -1.7170551 8
8.7990141 6.464941 -1.725809 5
5.6426883 2.7673883 -1.6734692 5
5.8680072 4.3205295 -1.6716677 6
nan nan nan 0
18.828377 11.845238 5.5292349 26
45.683434 18.396912 6.9165545 35
18.660263 11.721296 3.8754604 26
54.443027 21.945644 4.0919647 9
21.844612 13.700691 2.7065032 8
24.158152 9.7453766 0 54
26.749048 16.764236 1.1011664 79
nan nan nan 0
27.115967 16.987638 -1.1217562 4
12.016479 4.8302131 -1.8106585 7
15.712868 9.8427935 -1.9385561 8
7.4725504 2.9948473 -1.7052363 9
8.3792 5.2497621 -1.7373514 5
5.5032878 2.19572 -1.6879407 6
5.7435436 3.6004705 -1.680181 5
nan nan nan 0
19.046982 14.000991 6.3160043 8
22.828814 11.136179 4.0083828 15
17.980114 13.168222 4.321279 25
22.540388 10.995499 2.1910954 21
43.803608 32.006813 6.6473455 52
64.004791 31.205219 1.2423058 38
nan nan nan 0
nan nan nan 0
nan nan nan 0
13.782847 6.7122583 -1.8753392 6
17.612101 12.842049 -1.900122 6
8.0016212 3.8958385 -1.7199122 8
8.8303747 6.4430079 -1.7277665 5
5.645318 2.7454946 -1.6715292 5
5.8823028 4.3010464 -1.6716677 6
nan nan nan 0
18.828377 11.845238 5.5292349 26
45.683434 18.396912 6.9165545 35
18.660263 11.721296 3.8754604 26
54.443027 21.945644 4.0919647 9
24.573669 15.418602 3.0454369 1
24.158152 9.7453766 0 54
26.749048 16.764236 1.1011664 79
nan nan nan 0
27.115967 16.987638 -1.1217562 4
12.015635 4.8323102 -1.8106585 7
15.712868 9.8427935 -1.9385561 8
7.4720278 2.9961514 -1.7052363 9
8.3792 5.2497621 -1.7373514 5
5.5029049 2.1966801 -1.6879407 6
5.7435436 3.6004705 -1.680181 5
nan nan nan 0
19.046982 14.000991 6.3160043 8
22.826868 11.140163 4.0083828 15
17.980114 13.168222 4.321279 25
22.538469 10.999433 2.1910954 21
43.803608 32.006813 6.6473455 52
63.999348 31.216391 1.2423058 38
nan nan nan 0
nan nan nan 0
nan nan nan 0
13.781676 6.7146635 -1.8753392 6
17.609858 12.845122 -1.900122 6
8.0016212 3.8958385 -1.7199122 8
8.8292484 6.4445486 -1.7277665 5
5.6448388 2.7464797 -1.6715292 5
5.8815517 4.302073 -1.6716677 6
nan nan nan 0
18.801704 11.737043 5.5093045 22
45.567993 18.165842 6.8894157 35
18.728224 11.673022 3.8810983 22
54.201958 21.62886 4.0681329 23
24.530252 15.272275 3.0334158 22
24.217564 9.6711845 0 19
26.610094 16.548044 1.0930521 66
nan nan nan 0
26.578869 16.522192 -1.0971166 79
12.039331 4.7930832 -1.8116996 7
15.766133 9.7996998 -1.9409001 7
7.4869876 2.9718533 -1.7062768 9
8.3995638 5.2217808 -1.7377855 5
5.5083027 2.1765766 -1.687252 5
5.7560768 3.5803998 -1.680181 5
nan nan nan 0
19.062578 13.910212 6.3050189 8
22.925636 11.089443 4.018919 16
17.966427 13.062073 4.3069811 24
22.691072 10.975993 2.2022078 22
24.454443 17.735493 3.6995616 1
64.112427 30.994978 1.2423931 40
nan nan nan 0
nan nan nan 0
nan nan nan 0
13.793859 6.6611218 -1.873818 6
17.698961 12.815719 -1.904906 6
8.0085411 3.8646855 -1.7184837 8
8.8576889 6.4180384 -1.7289411 5
5.6565666 2.7278073 -1.6721759 5
5.9044147 4.2872467 -1.6739138 5
nan nan nan 0
18.801704 11.737043 5.5093045 22
45.567993 18.165842 6.8894157 35
18.728224 11.673022 3.8810983 22
54.201958 21.62886 4.0681329 23
24.532919 15.267993 3.0334158 22
24.217564 9.6711845 0 19
26.610094 16.548044 1.0930521 66
nan nan nan 0
26.578869 16.522192 -1.0971166 79
12.040168 4.7909818 -1.8116996 7
15.766133 9.7996998 -1.9409001 7
7.4875059 2.9705465 -1.7062768 9
8.3995638 5.2217808 -1.7377855 5
5.5086832 2.1756151 -1.687252 5
5.7560768 3.5803998 -1.680181 5
nan nan nan 0
19.062578 13.910212 6.3050189 8
22.92757 11.085442 4.018919 16
17.966427 13.062073 4.3069811 24
22.692989 10.972033 2.2022078 22
43.858826 31.812918 6.6388268 45
64.117836 30.983788 1.2423931 40
nan nan nan 0
nan nan nan 0
nan nan nan 0
13.795021 6.6587143 -1.873818 6
17.701199 12.812628 -1.904906 6
8.0085411 3.8646855 -1.7184837 8
8.8588085 6.4164929 -1.7289411 5
5.6570425 2.72682 -1.6721759 5
5.9051623 4.2862163 -1.6739138 5
nan nan nan 0
18.749756 11.613846 5.4821262 24
45.410042 17.919449 6.8560143 38
18.819109 11.638661 3.8915067 25
54.075314 21.359831 4.0529985 34
20.298197 12.534022 2.5037179 2
nan nan nan 0
26.565639 16.392076 1.0888642 65
nan nan nan 0
26.551325 16.376844 -1.0936092 83
12.059122 4.7498312 -1.8120468 7
15.766388 9.7237196 -1.936733 7
7.495553 2.9434996 -1.7057567 9
8.4135494 5.1898437 -1.7369171 5
5.5207214 2.1581199 -1.6886293 5
5.7644119 3.5577359 -1.6789722 5
nan nan nan 0
19.083639 13.823747 6.2959719 9
22.926043 10.986136 4.0118947 14
18.053698 13.029447 4.3169894 25
22.946764 10.996058 2.2231252 19
24.51016 17.645672 3.6986489 25
64.23912 30.766264 1.2426549 35
nan nan nan 0
nan nan nan 0
nan nan nan 0
13.851756 6.6265788 -1.8783815 6
17.796373 12.787103 -1.9103425 6
8.0264111 3.8388238 -1.719436 8
8.8871641 6.3898573 -1.7301157 5
5.6796026 2.7132993 -1.6760557 5
5.9200888 4.2655773 -1.6739138 5
nan nan nan 0
18.749756 11.613846 5.4821262 24
45.410042 17.919449 6.8560143 38
18.819109 11.638661 3.8915067 25
54.075314 21.359831 4.0529985 34
24.573372 15.174424 3.031848 12
nan nan nan 0
26.565639 16.392076 1.0888642 65
nan nan nan 0
26.551325 16.376844 -1.0936092 83
12.059122 4.7498312 -1.8120468 7
15.766388 9.7237196 -1.936733 7
7.495553 2.9434996 -1.7057567 9
8.4135494 5.1898437 -1.7369171 5
5.5207214 2.1581199 -1.6886293 5
5.7644119 3.5577359 -1.6789722 5
nan nan nan 0
19.083639 13.823747 6.2959719 9
22.926043 10.986136 4.0118947 14
18.053698 13.029447 4.3169894 25
22.946764 10.996058 2.2231252 19
43.92128 31.624825 6.631525 9
64.23912 30.766264 1.2426549 35
nan nan nan 0
nan nan nan 0
nan nan nan 0
13.851756 6.6265788 -1.8783815 6
17.796373 12.787103 -1.9103425 6
8.0264111 3.8388238 -1.719436 8
8.8871641 6.3898573 -1.7301157 5
5.6796026 2.7132993 -1.6760557 5
5.9200888 4.2655773 -1.6739138 5
nan nan nan 0
18.821136 11.562828 5.4905815 22
45.311672 17.688986 6.8313112 38
18.89312 11.588922 3.8980122 26
54.044064 21.118837 4.0448227 41
20.360964 12.469933 2.5058086 32
nan nan nan 0
26.597837 16.277641 1.0877301 50
nan nan nan 0
26.996918 16.515434 -1.1094803 30
12.090294 4.7109895 -1.8141292 7
15.888876 9.7190704 -1.9474114 8
7.5154095 2.9195437 -1.7078373 9
8.4409151 5.1641126 -1.7386537 6
5.5308366 2.138736 -1.6893179 5
5.7856874 3.5416532 -1.6813898 5
nan nan nan 0
19.10673 13.73397 6.2869253 21
23.055387 10.944386 4.027504 9
18.195095 13.030368 4.3393898 29
22.813667 10.829654 2.2063475 17
24.473724 17.483583 3.6834369 40
62.856419 29.821352 1.2137712 32
nan nan nan 0
nan nan nan 0
nan nan nan 0
13.907348 6.5906396 -1.8826408 7
17.916111 12.773857 -1.9181708 6
8.0404272 3.8093798 -1.719436 8
8.9145441 6.3601112 -1.7308987 5
5.6916933 2.6934969 -1.6767024 5
5.9455867 4.2509408 -1.6767215 5
nan nan nan 0
18.821136 11.562828 5.4905815 22
45.311672 17.688986 6.8313112 38
18.89312 11.588922 3.8980122 26
54.044064 21.118837 4.0448227 41
20.360964 12.469933 2.5058086 32
nan nan nan 0
26.597837 16.277641 1.0877301 50
nan nan nan 0
26.996918 16.515434 -1.1094803 30
12.090294 4.7109895 -1.8141292 7
15.888879 9.7190647 -1.9474114 8
7.5154095 2.9195437 -1.7078373 9
8.4418154 5.1626387 -1.7386537 6
5.5308366 2.138736 -1.6893179 5
5.786305 3.5406432 -1.6813898 5
nan nan nan 0
19.109127 13.730634 6.2869253 21
23.055387 10.944386 4.027504 9
18.197369 13.027191 4.3393898 29
22.813667 10.829654 2.2063475 17
24.476776 17.479311 3.6834369 40
62.856419 29.821352 1.2137712 32
nan nan nan 0
nan nan nan 0
nan nan nan 0
13.907348 6.5906396 -1.8826408 7
17.918343 12.770729 -1.9181708 6
8.0410919 3.8079765 -1.719436 8
8.9156542 6.3585558 -1.7308987 5
5.692163 2.6925032 -1.6767024 5
5.9455867 4.2509408 -1.6767215 5
nan nan nan 0
18.766102 11.43897 5.4627995 25
45.176842 17.454887 6.8017364 37
18.88719 11.494737 3.8884709 24
54.017429 20.891384 4.0373425 13
20.504225 12.459476 2.5180907 38
nan nan nan 0
26.631004 16.170433 1.0867703 34
23.210562 8.9653149 -1.7331263 5
27.364086 16.609091 -1.1221946 37
12.108974 4.6696482 -1.8144763 7
15.914207 9.6583824 -1.9463696 8
7.5278387 2.8941689 -1.7083577 9
8.4597855 5.1331401 -1.7386537 6
5.5427589 2.1211314 -1.6906954 6
5.800703 3.5216837 -1.6819942 5
nan nan nan 0
18.836498 13.435195 6.1815934 1
23.196238 10.912188 4.045454 3
18.274736 12.986345 4.3470154 25
22.932461 10.788114 2.2141917 17
24.478941 17.35214 3.674614 41
62.955608 29.59963 1.2136838 36
nan nan nan 0
nan nan nan 0
nan nan nan 0
13.963961 6.5578718 -1.8872045 7
18.025829 12.752707 -1.9249119 6
8.0632219 3.7840533 -1.7213405 8
8.9438391 6.3316779 -1.7320732 5
5.708087 2.6756907 -1.6786422 5
5.9623747 4.2315722 -1.677283 5
nan nan nan 0
18.766102 11.43897 5.4627995 25
45.176842 17.454887 6.8017364 37
18.88719 11.494737 3.8884709 24
54.017429 20.891384 4.0373425 13
20.504225 12.459476 2.5180907 38
nan nan nan 0
26.631004 16.170433 1.0867703 34
23.208996 8.9693651 -1.7331263 5
27.364086 16.609091 -1.1221946 37
12.108974 4.6696482 -1.8144763 7
15.914205 9.6583881 -1.9463696 8
7.5278387 2.8941689 -1.7083577 9
8.458889 5.1346169 -1.7386537 6
5.5427589 2.1211314 -1.6906954 6
5.8000879 3.522696 -1.6819942 5
nan nan nan 0
18.834154 13.438483 6.1815934 1
27.859692 13.105649 4.8598523 9
18.27247 12.989533 4.3470154 25
22.932461 10.788114 2.2141917 17
24.475912 17.356413 3.674614 41
62.955608 29.59963 1.2136838 36
nan nan nan 0
nan nan nan 0
nan nan nan 0
13.963961 6.5578718 -1.8872045 7
18.023602 12.755854 -1.9249119 6
8.062561 3.7854607 -1.7213405 8
8.9427338 6.3332386 -1.7320732 5
5.7076197 2.676687 -1.6786422 5
5.9623747 4.2315722 -1.677283 5
nan nan nan 0
18.689781 11.307596 5.4295821 23
45.086491 17.248379 6.779469 39
18.864092 11.395119 3.8758938 23
49.172066 18.83062 3.6702957 3
21.305462 12.849893 2.6113825 23
65.639542 25.148535 0 1
26.755095 16.124594 1.0896494 36
23.173391 8.8674078 -1.7282555 5
21.140177 12.735103 -0.8649264 13
12.133646 4.632997 -1.8158646 7
15.980221 9.6260929 -1.950537 8
7.5442514 2.8717961 -1.7099183 9
8.4843054 5.1116219 -1.7403902 5
5.5542583 2.104439 -1.6920727 6
5.8138151 3.5046957 -1.6825986 5
nan nan nan 0
18.161434 12.867597 5.9463749 61
27.999233 13.058065 4.8766317 20
18.367567 12.965677 4.3594069 23
23.031313 10.741479 2.2202926 6
24.519131 17.26515 3.6724842 39
63.057953 29.392817 1.2137712 38
nan nan nan 0
nan nan nan 0
nan nan nan 0
14.012627 6.5240955 -1.8908554 7
18.155447 12.759042 -1.93448 6
8.0750694 3.7587032 -1.7213405 8
8.9717627 6.3092332 -1.7336392 5
5.7098951 2.6546924 -1.6767024 6
5.9743838 4.210372 -1.6767215 5
nan nan nan 0
18.689781 11.307596 5.4295821 23
45.086491 17.248379 6.779469 39
18.864092 11.395119 3.8758938 23
49.172066 18.83062 3.6702957 3
21.303219 12.853611 2.6113825 23
65.639542 25.148535 0 1
26.755095 16.124594 1.0896494 36
23.173391 8.8674078 -1.7282555 5
27.547413 16.595623 -1.1274557 1
12.132837 4.6351147 -1.8158646 7
15.980221 9.6260929 -1.950537 8
7.5437503 2.8731124 -1.7099183 9
8.4843054 5.1116219 -1.7403902 5
5.5538907 2.1054084 -1.6920727 6
5.8138151 3.5046957 -1.6825986 5
nan nan nan 0
18.161434 12.867597 5.9463749 61
27.996952 13.062951 4.8766317 20
18.367567 12.965677 4.3594069 23
nan nan nan 0
24.519131 17.26515 3.6724842 39
63.052822 29.403822 1.2137712 38
nan nan nan 0
nan nan nan 0
nan nan nan 0
14.011487 6.5265408 -1.8908554 7
18.153219 12.76221 -1.93448 6
8.0750694 3.7587032 -1.7213405 8
8.9706602 6.3107991 -1.7336392 5
5.7094316 2.655689 -1.6767024 6
5.973649 4.2114148 -1.6767215 5
nan nan nan 0
18.614611 11.169109 5.3957601 22
44.945637 17.005934 6.7488513 30
18.80858 11.26769 3.8559442 24
48.529396 18.380899 3.6172392 4
25.107124 15.023926 3.071569 4
nan nan nan 0
26.756111 15.991811 1.0872937 30
23.194071 8.7780018 -1.7273856 4
21.107355 12.610116 -0.861682 36
12.149744 4.5906143 -1.8158646 7
16.083694 9.6082697 -1.9588715 8
7.5496531 2.8437228 -1.7088778 9
8.4987564 5.0779643 -1.739522 5
5.5570683 2.083354 -1.6906954 5
5.8307848 3.4858541 -1.6838073 5
nan nan nan 0
18.224277 12.812061 5.9515448 58
28.118616 12.994431 4.8895092 1
18.630016 13.048963 4.4104023 23
29.636311 13.695698 2.8532612 20
20.217497 14.124608 3.0195847 1
63.142006 29.164135 1.2134221 37
nan nan nan 0
nan nan nan 0
nan nan nan 0
14.082633 6.4969668 -1.8972445 7
18.271355 12.745474 -1.9420909 6
8.0910225 3.7301087 -1.7218168 8
8.9917088 6.2764645 -1.7332479 6
5.7147393 2.6327252 -1.6754091 5
5.9950304 4.1936851 -1.6784061 5
nan nan nan 0
18.614611 11.169109 5.3957601 22
44.945637 17.005934 6.7488513 30
18.80858 11.26769 3.8559442 24
48.529396 18.380899 3.6172392 4
25.109747 15.019544 3.071569 4
65.728935 24.9069 0 1
26.756111 15.991811 1.0872937 30
23.195602 8.7739525 -1.7273856 4
21.107355 12.610116 -0.861682 36
12.150545 4.5884933 -1.8158646 7
16.083696 9.6082649 -1.9588715 8
7.550149 2.8424051 -1.7088778 9
8.4996424 5.0764813 -1.739522 5
5.5574322 2.0823843 -1.6906954 5
5.8313928 3.4848363 -1.6838073 5
nan nan nan 0
18.226515 12.808882 5.9515448 58
28.120884 12.989524 4.8895092 1
18.632292 13.045712 4.4104023 23
63.198582 29.190266 6.0873933 1
24.571005 17.160929 3.6703546 37
63.147091 29.153114 1.2134221 37
nan nan nan 0
nan nan nan 0
nan nan nan 0
14.083767 6.4945087 -1.8972445 7
18.275805 12.739096 -1.9420909 6
8.0916719 3.7286963 -1.7218168 8
8.9938974 6.273325 -1.7332479 6
5.7156582 2.6307304 -1.6754091 5
5.9957623 4.1926389 -1.6784061 5
nan nan nan 0
18.807735 11.195906 5.4404531 26
44.895752 16.808155 6.7324982 30
18.871077 11.215805 3.8607147 23
47.838924 17.928755 3.5610514 6
25.059391 14.870891 3.0590255 21
nan nan nan 0
21.106207 12.514641 0.8556484 29
nan nan nan 0
21.140501 12.52999 -0.86124361 31
12.178085 4.5503817 -1.8175998 7
16.140667 9.5660105 -1.9617364 9
7.5669017 2.8185902 -1.7104385 9
8.5215473 5.0492916 -1.7403902 6
5.5736828 2.0663078 -1.6934501 5
5.8435211 3.4644599 -1.6838073 6
nan nan nan 0
18.152287 12.662253 5.9127727 57
nan nan nan 0
18.9175 13.147306 4.4671168 24
63.300083 28.969482 6.0873933 28
20.293598 14.067379 3.0232353 13
63.273487 28.943953 1.2139021 36
nan nan nan 0
nan nan nan 0
nan nan nan 0
14.160522 6.4700518 -1.9045463 8
18.400028 12.730505 -1.9505715 6
8.1046391 3.7004285 -1.7218168 8
9.0258884 6.2489228 -1.7352054 5
5.7313986 2.6137671 -1.6773489 5
6.0063596 4.1689034 -1.677283 5
nan nan nan 0
18.807735 11.195906 5.4404531 26
44.895752 16.808155 6.7324982 30
18.871077 11.215805 3.8607147 23
47.838924 17.928755 3.5610514 6
25.056797 14.875264 3.0590255 21
65.874001 24.699249 0 1
21.106207 12.514641 0.8556484 29
nan nan nan 0
21.140501 12.52999 -0.86124361 31
12.177291 4.5525074 -1.8175998 7
16.140663 9.5660162 -1.9617364 9
7.5664096 2.8199105 -1.7104385 9
8.5206652 5.0507789 -1.7403902 6
5.5733228 2.0672805 -1.6934501 5
5.8429165 3.4654796 -1.6838073 6
nan nan nan 0
18.150076 12.665421 5.9127727 57
nan nan nan 0
18.915203 13.150609 4.4671168 24
63.295033 28.980532 6.0873933 28
24.83778 17.225037 3.7016914 2
63.268429 28.954996 1.2139021 36
nan nan nan 0
nan nan nan 0
nan nan nan 0
14.159392 6.4725237 -1.9045463 8
18.395582 12.736928 -1.9505715 6
8.1039925 3.701843 -1.7218168 8
9.0237064 6.2520733 -1.7352054 5
5.7304859 2.6157675 -1.6773489 5
6.0056319 4.1699519 -1.677283 5
nan nan nan 0
19.011841 11.23221 5.4887695 27
44.72374 16.574888 6.6984005 28
18.882721 11.138153 3.8555107 29
47.231709 17.522844 3.5114741 6
25.19381 14.843843 3.0697396 15
65.976639 24.488495 0 1
21.016245 12.367273 0.85032618 27
nan nan nan 0
18.589228 10.934423 -0.75567067 2
12.203931 4.5163932 -1.8193351 7
16.298733 9.5868263 -1.9771031 9
7.580307 2.7964942 -1.7114788 9
8.5394878 5.0237441 -1.7408242 6
5.575634 2.0471339 -1.6920727 6
5.8585572 3.4485474 -1.685016 5
nan nan nan 0
18.027239 12.490966 5.8591375 37
nan nan nan 0
18.227697 12.582954 4.29459 20
29.540615 13.408229 2.8351762 16
20.25391 13.945844 3.0107617 29
63.332226 28.730572 1.2132912 36
nan nan nan 0
nan nan nan 0
nan nan nan 0
14.207902 6.43782 -1.908197 9
18.460289 12.69138 -1.9529636 7
8.1251678 3.6789966 -1.7237215 8
9.0504913 6.2263169 -1.7363799 5
5.7325277 2.5937655 -1.6754091 5
6.0294509 4.1569333 -1.6800907 5
nan nan nan 0
19.011841 11.23221 5.4887695 27
44.72374 16.574888 6.6984005 28
18.882721 11.138153 3.8555107 29
47.231709 17.522844 3.5114741 6
25.19381 14.843843 3.0697396 15
65.976639 24.488495 0 1
21.016245 12.367273 0.85032618 27
nan nan nan 0
21.287451 12.521896 -0.86554015 19
12.203931 4.5163932 -1.8193351 7
16.298733 9.5868263 -1.9771031 9
7.580307 2.7964942 -1.7114788 9
8.5394878 5.0237441 -1.7408242 6
5.575634 2.0471339 -1.6920727 6
5.8585572 3.4485474 -1.685016 5
nan nan nan 0
18.027239 12.490966 5.8591375 37
nan nan nan 0
18.227697 12.582954 4.29459 20
63.408928 28.778709 6.0891361 1
20.25391 13.945844 3.0107617 29
63.332226 28.730572 1.2132912 36
nan nan nan 0
nan nan nan 0
nan nan nan 0
14.207902 6.43782 -1.908197 9
18.460289 12.69138 -1.9529636 7
8.1251678 3.6789966 -1.7237215 8
9.0504913 6.2263169 -1.7363799 5
5.7325277 2.5937655 -1.6754091 5
6.0294509 4.1569333 -1.6800907 5
nan nan nan 0
19.103258 11.196451 5.5038686 23
44.811543 16.429749 6.7029238 29
18.942734 11.084607 3.8598475 26
46.557419 17.088108 3.456852 6
20.656372 12.073081 2.511035 15
66.134468 24.284756 0 1
21.085176 12.308956 0.85137314 25
23.189568 8.5043688 -1.7204275 5
18.597075 10.851837 -0.75444311 113
12.217298 4.4729156 -1.8189881 7
16.435175 9.5900354 -1.9896049 12
7.5877247 2.7691793 -1.7109587 10
8.5654774 4.9988708 -1.7425607 6
5.587265 2.0292966 -1.6934501 6
5.8705592 3.428076 -1.685016 5
nan nan nan 0
17.98518 12.3691 5.8313508 35
nan nan nan 0
18.271509 12.519252 4.29459 26
29.500923 13.266221 2.8268964 20
20.18161 13.792432 2.9928114 30
63.450375 28.517527 1.2136403 37
nan nan nan 0
nan nan nan 0
nan nan nan 0
14.261981 6.40241 -1.9124564 8
18.566185 12.668989 -1.9594873 7
8.1290026 3.6465957 -1.7218168 8
9.0803242 6.2002587 -1.737946 5
5.748158 2.5767012 -1.6773489 5
6.0419154 4.1344848 -1.6795292 5
nan nan nan 0
19.103258 11.196451 5.5038686 23
44.811543 16.429749 6.7029238 29
18.942734 11.084607 3.8598475 26
46.557419 17.088108 3.456852 6
20.658478 12.069476 2.511035 15
66.134468 24.284756 0 1
21.085176 12.308956 0.85137314 25
23.189568 8.5043688 -1.7204275 5
18.597075 10.851837 -0.75444311 113
12.218079 4.4707837 -1.8189881 7
16.435175 9.5900354 -1.9896049 12
7.5882082 2.7678554 -1.7109587 10
8.5654774 4.9988708 -1.7425607 6
5.5876188 2.0283213 -1.6934501 6
5.8705592 3.428076 -1.685016 5
nan nan nan 0
17.98518 12.3691 5.8313508 35
nan nan nan 0
18.271509 12.519252 4.29459 26
63.500347 28.539986 6.0878286 1
20.18161 13.792432 2.9928114 30
63.455349 28.506451 1.2136403 37
nan nan nan 0
nan nan nan 0
nan nan nan 0
14.263099 6.3999205 -1.9124564 8
18.568398 12.66575 -1.9594873 7
8.1290026 3.6465957 -1.7218168 8
9.0814056 6.1986747 -1.737946 5
5.7486072 2.5756979 -1.6773489 5
6.0426369 4.13343 -1.6795292 5
nan nan nan 0
19.215475 11.167812 5.5244036 17
44.792324 16.236719 6.6910944 29
19.013046 11.032408 3.8659191 21
45.975018 16.683456 3.409014 6
18.69116 10.82817 2.2666998 19
nan nan nan 0
18.684685 10.815715 0.75269485 7
23.215893 8.4176178 -1.7200795 5
18.641047 10.786105 -0.75461847 255
12.241366 4.4284964 -1.8200293 7
16.446541 9.5160332 -1.98674 12
7.5983014 2.7400248 -1.7109587 9
8.5858717 4.968677 -1.7429948 7
5.5904899 2.0062077 -1.6920727 6
5.8851833 3.4077525 -1.6856204 5
nan nan nan 0
17.932657 12.236377 5.7996869 31
nan nan nan 0
18.215807 12.383192 4.2707601 24
63.618179 28.313129 6.0891361 39
20.279257 13.750408 2.999809 30
63.584526 28.284855 1.2141201 38
nan nan nan 0
nan nan nan 0
nan nan nan 0
14.320477 6.3627105 -1.9170201 9
18.653879 12.624137 -1.9636189 9
8.1512852 3.6207602 -1.7237215 8
9.1101952 6.1695037 -1.7391205 5
5.76684 2.5585263 -1.6799355 5
6.0597606 4.1126242 -1.6800907 5
nan nan nan 0
19.215475 11.167812 5.5244036 17
44.792324 16.236719 6.6910944 29
19.013046 11.032408 3.8659191 21
45.975018 16.683456 3.409014 6
20.704727 11.994925 2.5112963 1
nan nan nan 0
18.684685 10.815715 0.75269485 7
23.21736 8.4135656 -1.7200795 5
18.641047 10.786105 -0.75461847 255
12.241366 4.4284964 -1.8200293 7
16.446543 9.5160284 -1.98674 12
7.5983014 2.7400248 -1.7109587 9
8.5867386 4.9671788 -1.7429948 7
5.5904899 2.0062077 -1.6920727 6
5.885778 3.4067256 -1.6856204 5
nan nan nan 0
17.934793 12.233248 5.7996869 31
nan nan nan 0
18.217968 12.380013 4.2707601 24
63.618179 28.313129 6.0891361 39
20.281656 13.746868 2.999809 30
63.584526 28.284855 1.2141201 38
nan nan nan 0
nan nan nan 0
nan nan nan 0
14.320477 6.3627105 -1.9170201 9
18.656082 12.62088 -1.9636189 9
8.1519175 3.619338 -1.7237215 8
9.1112719 6.167913 -1.7391205 5
5.7672863 2.5575197 -1.6799355 5
6.0597606 4.1126242 -1.6800907 5
nan nan nan 0
18.918087 10.906768 5.4277697 24
44.888348 16.094467 6.6970091 23
18.65243 10.736254 3.7848189 14
45.387447 16.291229 3.3611763 6
18.698664 10.745513 2.2630413 14
nan nan nan 0
18.702826 10.739227 0.75190961 22
23.255981 8.3358364 -1.7207754 5
18.672083 10.717238 -0.75435537 254
12.266076 4.3890729 -1.8214176 7
16.443005 9.4375162 -1.9823123 13
7.619338 2.717586 -1.7135596 9
8.6189709 4.945755 -1.7460337 7
5.6019902 1.9882857 -1.6934501 6
5.9081502 3.3922019 -1.6886423 5
nan nan nan 0
18.035376 12.209845 5.8184266 31
nan nan nan 0
18.132906 12.229863 4.2407346 29
63.753086 28.106962 6.0926223 38
20.304813 13.659362 2.9961581 30
63.685154 28.063742 1.2141639 38
nan nan nan 0
23.950583 10.550273 -1.374328 5
nan nan nan 0
14.358499 6.3196797 -1.9191498 9
18.768248 12.601509 -1.9707949 6
8.166748 3.5918477 -1.7241976 7
9.1450405 6.1443386 -1.7414696 5
5.7783899 2.538343 -1.680582 5
6.0781183 4.0941706 -1.6812137 5
nan nan nan 0
18.918087 10.906768 5.4277697 24
44.888348 16.094467 6.6970091 23
18.65243 10.736254 3.7848189 14
45.387447 16.291229 3.3611763 6
18.698664 10.745513 2.2630413 14
nan nan nan 0
18.702826 10.739227 0.75190961 22
23.254524 8.3398943 -1.7207754 5
18.672083 10.717238 -0.75435537 254
12.266076 4.3890729 -1.8214176 7
16.443001 9.4375219 -1.9823123 13
7.619338 2.717586 -1.7135596 9
8.6181078 4.9472594 -1.7460337 7
5.6019902 1.9882857 -1.6934501 6
5.9075584 3.3932331 -1.6886423 5
nan nan nan 0
18.033245 12.212993 5.8184266 31
nan nan nan 0
18.130772 12.233027 4.2407346 29
63.753086 28.106962 6.0926223 38
20.302427 13.662905 2.9961581 30
63.685154 28.063742 1.2141639 38
nan nan nan 0
nan nan nan 0
nan nan nan 0
14.358499 6.3196797 -1.9191498 9
18.766048 12.604786 -1.9707949 6
8.1661215 3.5932729 -1.7241976 7
9.1439676 6.1459351 -1.7414696 5
5.7779474 2.5393515 -1.680582 5
6.0781183 4.0941706 -1.6812137 5
33.244278 11.77035 7.4823098 2
18.88888 10.806622 5.4090471 25
44.736149 15.872694 6.6663909 13
18.730686 10.698768 3.7934928 18
44.792572 15.910295 3.3131642 9
18.719076 10.674823 2.2612119 7
66.26265 23.547354 0 1
18.792603 10.708076 0.75409085 4
23.277353 8.2610664 -1.7204275 5
18.705349 10.654024 -0.75426769 136
12.278229 4.3475466 -1.8210704 6
16.409393 9.3460197 -1.9744986 21
7.6260023 2.6914923 -1.7130395 9
8.6301899 4.9162159 -1.7451656 7
5.6017485 1.9673135 -1.6913841 6
5.9166708 3.3724225 -1.688038 5
nan nan nan 0
18.143778 12.200306 5.8410439 30
nan nan nan 0
18.132505 12.146878 4.2316794 25
63.87104 27.906359 6.0950189 38
20.430145 13.650664 3.0083277 24
63.837433 27.87841 1.2152983 36
nan nan nan 0
23.880184 10.424852 -1.3682894 30
nan nan nan 0
14.383925 6.2740145 -1.9197583 10
18.838821 12.563219 -1.9740567 7
8.1869907 3.5700958 -1.7261024 8
9.1642981 6.1155791 -1.7414696 5
5.7863359 2.5201771 -1.680582 5
6.0957108 4.076704 -1.6823368 5
33.244278 11.77035 7.4823098 2
18.88888 10.806622 5.4090471 25
44.736149 15.872694 6.6663909 13
18.730686 10.698768 3.7934928 18
44.792572 15.910295 3.3131642 9
18.717215 10.67809 2.2612119 7
66.26265 23.547354 0 1
21.425648 12.20872 0.85992354 4
23.277353 8.2610664 -1.7204275 5
18.705349 10.654024 -0.75426769 136
12.277469 4.3496895 -1.8210704 6
16.409393 9.3460197 -1.9744986 21
7.6255322 2.6928232 -1.7130395 9
8.6301899 4.9162159 -1.7451656 7
5.6014047 1.9682912 -1.6913841 6
5.9166708 3.3724225 -1.688038 5
nan nan nan 0
18.143778 12.200306 5.8410439 30
nan nan nan 0
18.132505 12.146878 4.2316794 25
63.866169 27.917507 6.0950189 38
20.430145 13.650664 3.0083277 24
63.832569 27.889549 1.2152983 36
nan nan nan 0
23.878365 10.429021 -1.3682894 30
nan nan nan 0
14.382831 6.276525 -1.9197583 10
18.836626 12.566506 -1.9740567 7
8.1869907 3.5700958 -1.7261024 8
9.1632299 6.1171784 -1.7414696 5
5.7858963 2.5211871 -1.680582 5
6.0949988 4.0777678 -1.6823368 5
32.867386 11.508013 7.3883071 42
18.892731 10.721461 5.399384 28
44.300697 15.54435 6.5933251 6
19.461945 11.026621 3.9340086 16
44.219574 15.533211 3.2667179 6
21.692755 12.275824 2.6160862 17
nan nan nan 0
21.187559 11.975245 0.84866846 26
23.268393 8.1665545 -1.7176441 6
18.762001 10.599728 -0.75505692 42
12.308935 4.3125324 -1.8234999 7
16.32719 9.2238522 -1.9606947 19
7.639504 2.6677985 -1.71408 9
8.6601562 4.8933301 -1.7477702 7
5.6195946 1.9526625 -1.6948273 5
5.9326291 3.3541377 -1.6892467 5
nan nan nan 0
18.152109 12.1141 5.8300586 31
nan nan nan 0
18.211575 12.107975 4.2402582 27
64.006653 27.713202 6.0991588 1
nan nan nan 0
63.943298 27.672522 1.2155601 20
70.589905 46.73473 4.4349489 13
23.637363 10.225683 -1.352405 58
nan nan nan 0
14.406929 6.2272649 -1.9200624 12
18.955124 12.55019 -1.9818851 7
8.1994038 3.541496 -1.7261024 8
9.1927595 6.0906138 -1.7430358 5
5.7902265 2.4990621 -1.6792887 5
6.1091962 4.0564675 -1.6823368 5
32.867386 11.508013 7.3883071 42
18.892731 10.721461 5.399384 28
44.300697 15.54435 6.5933251 6
19.461945 11.026621 3.9340086 16
44.219574 15.533211 3.2667179 6
21.694897 12.272038 2.6160862 17
nan nan nan 0
21.187559 11.975245 0.84866846 26
23.269817 8.1624937 -1.7176441 6
18.762001 10.599728 -0.75505692 42
12.309688 4.3103838 -1.8234999 7
16.327192 9.2238464 -1.9606947 19
7.6399689 2.666465 -1.71408 9
8.6610098 4.8918185 -1.7477702 7
5.6199355 1.9516817 -1.6948273 5
5.9332147 3.353102 -1.6892467 5
nan nan nan 0
18.154222 12.110931 5.8300586 31
nan nan nan 0
18.21369 12.104796 4.2402582 27
64.01149 27.70203 6.0991588 1
nan nan nan 0
63.948124 27.66136 1.2155601 20
nan nan nan 0
23.639149 10.221558 -1.352405 58
nan nan nan 0
14.408016 6.2247505 -1.9200624 12
18.959503 12.543572 -1.9818851 7
8.2000217 3.5400648 -1.7261024 8
9.1948843 6.0874047 -1.7430358 5
5.7910981 2.4970407 -1.6792887 5
6.1099043 4.0554008 -1.6823368 5
32.530323 11.256371 7.3031335 73
18.910757 10.640245 5.3933444 27
43.760906 15.175096 6.5046024 4
19.628868 11.02637 3.9595962 30
43.649487 15.153522 3.2204456 9
22.153902 12.424767 2.6659985 27
nan nan nan 0
21.248741 11.907281 0.84936649 24
23.29958 8.0771503 -1.7176441 5
nan nan nan 0
12.325404 4.2652378 -1.8234999 7
16.235079 9.0934553 -1.9455882 16
7.6566267 2.6408336 -1.7156405 10
8.6810303 4.8612452 -1.7482044 7
5.6202307 1.9287353 -1.6927614 5
5.9243059 3.3194692 -1.6832029 17
nan nan nan 0
18.530739 12.264304 5.9366817 31
nan nan nan 0
18.223106 12.014986 4.2321558 26
59.323456 25.415592 5.6433344 3
nan nan nan 0
64.085831 27.442532 1.216258 6
70.635269 46.375648 4.4265752 23
23.637438 10.118148 -1.3501734 54
nan nan nan 0
14.439861 6.1758027 -1.9212794 14
19.015762 12.480833 -1.9829723 8
8.2197113 3.5128789 -1.7275307 8
9.2191973 6.0550189 -1.7434273 5
5.8113174 2.480536 -1.6825218 5
6.1308279 4.037003 -1.6840214 5
32.530323 11.256371 7.3031335 73
18.910757 10.640245 5.3933444 27
43.760906 15.175096 6.5046024 4
19.628868 11.02637 3.9595962 30
43.649487 15.153522 3.2204456 9
22.153902 12.424767 2.6659985 27
nan nan nan 0
21.248741 11.907281 0.84936649 24
23.29958 8.0771503 -1.7176441 5
nan nan nan 0
12.325404 4.2652378 -1.8234999 7
16.235079 9.0934553 -1.9455882 16
7.6566267 2.6408336 -1.7156405 10
8.6810303 4.8612452 -1.7482044 7
5.6202307 1.9287353 -1.6927614 5
5.9243059 3.3194692 -1.6832029 17
nan nan nan 0
18.530739 12.264304 5.9366817 31
nan nan nan 0
18.223106 12.014986 4.2321558 26
59.323456 25.415592 5.6433344 3
nan nan nan 0
64.085831 27.442532 1.216258 6
83.121155 54.574223 5.2093902 1
23.637438 10.118148 -1.3501734 54
nan nan nan 0
14.439861 6.1758027 -1.9212794 14
19.015762 12.480833 -1.9829723 8
8.2197113 3.5128789 -1.7275307 8
9.2191973 6.0550189 -1.7434273 5
5.8113174 2.480536 -1.6825218 5
6.1308279 4.037003 -1.6840214 5
32.361168 11.07153 7.256392 77
18.924482 10.561163 5.3867006 26
43.129768 14.787852 6.4030061 6
19.684444 10.967374 3.9630659 31
43.088799 14.790601 3.1752172 13
25.573475 14.225833 3.0720916 12
nan nan nan 0
21.377525 11.881595 0.8528564 26
nan nan nan 0
nan nan nan 0
12.351932 4.2261915 -1.8252354 7
16.127625 8.9594364 -1.9289193 18
7.6634827 2.6133027 -1.7151202 10
8.7044029 4.8345008 -1.7495067 7
5.6292052 1.9098758 -1.6934501 5
5.9316173 3.2964115 -1.6819942 16
nan nan nan 0
18.79141 12.342782 6.0064721 26
nan nan nan 0
18.277256 11.959368 4.2350159 27
59.175659 25.10817 5.620892 6
21.044163 13.734019 3.0767817 27
nan nan nan 0
nan nan nan 0
23.688702 10.042397 -1.3510922 48
nan nan nan 0
14.481895 6.134069 -1.9240177 15
19.077991 12.426618 -1.9849294 9
8.2341852 3.4851215 -1.7280071 8
9.2464819 6.0268488 -1.7446017 4
5.8132677 2.4574165 -1.680582 5
6.1408052 4.0129099 -1.6828983 5
32.361168 11.07153 7.256392 77
18.924482 10.561163 5.3867006 26
43.129768 14.787852 6.4030061 6
19.684444 10.967374 3.9630659 31
43.088799 14.790601 3.1752172 13
25.573475 14.225833 3.0720916 12
nan nan nan 0
21.377525 11.881595 0.8528564 26
nan nan nan 0
nan nan nan 0
12.351932 4.2261915 -1.8252354 7
16.127623 8.9594421 -1.9289193 18
7.6634827 2.6133027 -1.7151202 10
8.703558 4.8360205 -1.7495067 7
5.6292052 1.9098758 -1.6934501 5
5.9310412 3.2974467 -1.6819942 16
nan nan nan 0
18.789253 12.346062 6.0064721 26
nan nan nan 0
18.275169 11.962558 4.2350159 27
59.175659 25.10817 5.620892 6
21.041765 13.737693 3.0767817 27
nan nan nan 0
82.682617 53.894714 5.1706614 64
23.688702 10.042397 -1.3510922 48
nan nan nan 0
14.481895 6.134069 -1.9240177 15
19.075823 12.429947 -1.9849294 9
8.2335768 3.4865587 -1.7280071 8
9.24543 6.0284619 -1.7446017 4
5.812839 2.4584312 -1.680582 5
6.1408052 4.0129099 -1.6828983 5
32.293461 10.928894 7.2330213 77
18.970011 10.504226 5.3897209 28
42.634628 14.460316 6.3222852 9
19.8349 10.965181 3.9860513 30
42.592083 14.462451 3.1350336 13
25.611801 14.136145 3.0710461 15
nan nan nan 0
21.460566 11.834773 0.85460138 24
nan nan nan 0
nan nan nan 0
12.370569 4.1867938 -1.8259295 7
16.030954 8.8362818 -1.9138129 21
7.6651545 2.5855341 -1.7135596 10
8.717392 4.8059425 -1.7490727 7
5.6355076 1.891198 -1.6934501 5
5.9270768 3.2695539 -1.6777636 16
nan nan nan 0
19.028292 12.413039 6.0698004 20
nan nan nan 0
18.304449 11.895201 4.2326326 27
59.015236 24.809498 5.5977955 6
21.210045 13.747491 3.094732 28
66.17234 27.80448 1.2522537 4
nan nan nan 0
23.726477 9.9657192 -1.3513547 43
nan nan nan 0
14.529615 6.0975308 -1.9276685 21
19.194298 12.416688 -1.9929754 9
8.2473564 3.4601848 -1.7284831 7
9.2736578 6.0031409 -1.7461679 5
5.8231869 2.4400742 -1.6812288 5
6.154079 3.9925241 -1.6828983 5
32.293461 10.928894 7.2330213 77
18.970011 10.504226 5.3897209 28
42.634628 14.460316 6.3222852 9
19.8349 10.965181 3.9860513 30
42.592083 14.462451 3.1350336 13
25.609335 14.140613 3.0710461 15
nan nan nan 0
21.460566 11.834773 0.85460138 24
nan nan nan 0
nan nan nan 0
12.369838 4.1889529 -1.8259295 7
16.030954 8.8362818 -1.9138129 21
7.6647029 2.5868719 -1.7135596 10
8.717392 4.8059425 -1.7490727 7
5.6351776 1.8921819 -1.6934501 5
5.9270768 3.2695539 -1.6777636 16
nan nan nan 0
19.028292 12.413039 6.0698004 20
nan nan nan 0
18.304449 11.895201 4.2326326 27
59.010906 24.819798 5.5977955 6
21.210045 13.747491 3.094732 28
66.16748 27.816027 1.2522537 4
nan nan nan 0
23.724739 9.969861 -1.3513547 43
nan nan nan 0
14.52855 6.1000671 -1.9276685 21
19.192131 12.420037 -1.9929754 9
8.2473564 3.4601848 -1.7284831 7
9.2726107 6.0047588 -1.7461679 5
5.8227606 2.4410903 -1.6812288 5
6.1533823 3.9935985 -1.6828983 5
32.278072 10.798264 7.2210755 74
18.972544 10.419257 5.3800573 31
42.182518 14.143037 6.2478275 9
19.985313 10.957439 4.0086036 28
42.070129 14.121686 3.0929363 13
25.684706 14.065467 3.074182 20
48.331745 16.232244 0 1
21.681486 11.858112 0.86175579 8
nan nan nan 0
nan nan nan 0
12.391429 4.1481042 -1.8269707 7
15.939536 8.7134695 -1.8992276 20
7.6736865 2.5601015 -1.7135596 10
8.7405939 4.7790284 -1.750375 7
5.6394668 1.8717442 -1.6927614 5
5.9299426 3.2441845 -1.6753459 16
nan nan nan 0
19.061371 12.339978 6.0665689 22
nan nan nan 0
18.38504 11.856513 4.2416878 25
57.894764 24.112896 5.4838395 6
21.293379 13.696198 3.0999041 26
66.275719 27.589695 1.2524719 18
26.926363 17.287668 1.6751431 40
23.773224 9.8927393 -1.3521425 42
nan nan nan 0
14.549756 6.0493159 -1.9276685 17
19.260509 12.369123 -1.9955847 10
8.2548504 3.4294927 -1.7275307 7
9.289361 5.9696836 -1.7453848 5
5.8379378 2.4235265 -1.6831685 5
6.1754742 3.9773765 -1.6851444 5
32.278072 10.798264 7.2210755 74
18.972544 10.419257 5.3800573 31
42.182518 14.143037 6.2478275 9
19.985313 10.957439 4.0086036 28
42.070129 14.121686 3.0929363 13
25.687162 14.060984 3.074182 20
nan nan nan 0
62.326778 34.092331 2.479609 9
nan nan nan 0
nan nan nan 0
12.392153 4.1459413 -1.8269707 7
15.939536 8.7134695 -1.8992276 20
7.6741333 2.5587621 -1.7135596 10
8.7405939 4.7790284 -1.750375 7
5.6397929 1.8707601 -1.6927614 5
5.9299426 3.2441845 -1.6753459 16
nan nan nan 0
19.061371 12.339978 6.0665689 22
nan nan nan 0
18.38504 11.856513 4.2416878 25
57.898968 24.102789 5.4838395 6
21.293379 13.696198 3.0999041 26
66.280533 27.578129 1.2524719 18
51.911591 33.334061 3.2313528 9
23.77495 9.8885899 -1.3521425 42
nan nan nan 0
14.550811 6.0467768 -1.9276685 17
19.262671 12.36576 -1.9955847 10
8.2548504 3.4294927 -1.7275307 7
9.2904024 5.9680624 -1.7453848 5
5.8383608 2.4225075 -1.6831685 5
6.1761684 3.9762986 -1.6851444 5
32.264019 10.662244 7.2091308 77
19.008472 10.34849 5.3794537 29
41.644173 13.793015 6.1604967 9
20.172434 10.96408 4.0380945 26
41.548725 13.77749 3.0508387 13
25.681707 13.935905 3.0673878 25
48.621078 16.131334 0 3
62.440334 33.857708 2.4791729 35
nan nan nan 0
nan nan nan 0
12.426073 4.1067028 -1.8297472 7
15.877372 8.6040392 -1.888028 20
7.6834598 2.5306177 -1.7135596 12
8.7623796 4.7493076 -1.7512432 7
5.6534638 1.8523163 -1.6948273 6
5.9439249 3.2235858 -1.6759504 15
nan nan nan 0
19.492517 12.518062 6.1893482 16
43.003761 17.717867 7.3444095 13
18.480051 11.822123 4.253603 23
56.045723 23.090706 5.3001585 1
21.274408 13.574003 3.089864 26
66.374237 27.332157 1.252341 74
26.997963 17.194225 1.6756663 79
23.83643 9.8118362 -1.3535866 41
nan nan nan 0
14.554517 5.9858556 -1.9252347 18
19.335171 12.312473 -1.9984118 10
8.2741756 3.4020126 -1.7289592 7
9.3226223 5.9406099 -1.7473423 5
5.8427324 2.3992593 -1.6818753 5
6.1948051 3.95626 -1.6862675 5
32.264019 10.662244 7.2091308 77
19.008472 10.34849 5.3794537 29
41.644173 13.793015 6.1604967 9
20.172434 10.96408 4.0380945 26
41.548725 13.77749 3.0508387 13
25.681707 13.935905 3.0673878 25
61.154617 20.288546 0 1
62.440334 33.857708 2.4791729 35
nan nan nan 0
nan nan nan 0
12.426073 4.1067028 -1.8297472 7
15.877375 8.6040335 -1.888028 20
7.6834598 2.5306177 -1.7135596 12
8.7632084 4.7477779 -1.7512432 7
5.6534638 1.8523163 -1.6948273 6
5.944488 3.2225485 -1.6759504 15
nan nan nan 0
19.494703 12.514658 6.1893482 16
43.003761 17.717867 7.3444095 13
18.482113 11.818896 4.253603 23
56.045723 23.090706 5.3001585 1
21.276781 13.570291 3.089864 26
66.374237 27.332157 1.252341 74
27.000963 17.189514 1.6756663 79
23.83643 9.8118362 -1.3535866 41
nan nan nan 0
14.554517 5.9858556 -1.9252347 18
19.33732 12.3091 -1.9984118 10
8.2747679 3.4005685 -1.7289592 7
9.3236599 5.9389825 -1.7473423 5
5.8431511 2.3982394 -1.6818753 5
6.1948051 3.95626 -1.6862675 5
14.179911 4.6336536 3.1607785 6
19.11919 10.32242 5.4005919 26
41.103844 13.455079 6.0735135 9
20.379623 10.984732 4.0719223 22
41.060947 13.456893 3.0115247 13
23.243105 12.507573 2.7705269 10
44.011395 14.432021 0 6
62.558136 33.639542 2.4791729 34
nan nan nan 0
nan nan nan 0
12.449746 4.0663743 -1.8311355 7
15.852559 8.5191278 -1.8815167 18
7.7038741 2.5075603 -1.7161607 12
8.7840652 4.7194915 -1.7521116 7
5.6621828 1.8333095 -1.6955161 5
5.9599733 3.2040775 -1.6771592 15
nan nan nan 0
19.69305 12.545177 6.2384596 17
42.528027 17.348482 7.252707 68
18.570908 11.784563 4.2645645 19
55.45723 22.622154 5.2369704 4
nan nan nan 0
66.5271 27.12389 1.2534318 36
27.016485 17.067152 1.6729188 55
23.891342 9.7370501 -1.3547679 41
nan nan nan 0
14.584515 5.9387569 -1.9264516 22
19.548599 12.347959 -2.0158081 17
8.2820425 3.3698146 -1.7280071 7
9.3505945 5.9103613 -1.748517 5
5.8581996 2.3805542 -1.6838151 5
6.2106342 3.9359174 -1.686829 5
32.261528 10.536655 7.2003016 47
19.11919 10.32242 5.4005919 26
41.103844 13.455079 6.0735135 9
20.379623 10.984732 4.0719223 22
41.060947 13.456893 3.0115247 13
25.775942 13.876596 3.0731368 1
44.011395 14.432021 0 6
62.558136 33.639542 2.4791729 34
nan nan nan 0
nan nan nan 0
12.449037 4.0685477 -1.8311355 7
15.852556 8.5191336 -1.8815167 18
7.7034364 2.5089049 -1.7161607 12
8.7832422 4.721025 -1.7521116 7
5.6618624 1.8342977 -1.6955161 5
5.9594145 3.2051175 -1.6771592 15
nan nan nan 0
19.690861 12.548615 6.2384596 17
42.525002 17.355904 7.252707 68
18.568851 11.787805 4.2645645 19
55.453278 22.631832 5.2369704 4
nan nan nan 0
66.522362 27.135502 1.2534318 36
52.279625 33.044453 3.2394648 1
23.889643 9.7412195 -1.3547679 41
nan nan nan 0
14.583479 5.9413023 -1.9264516 22
19.544285 12.354782 -2.0158081 17
8.2814541 3.3712602 -1.7280071 7
9.3485298 5.9136252 -1.748517 5
5.857368 2.3825986 -1.6838151 5
6.2099471 3.937001 -1.686829 5
14.220797 4.5948696 3.1664915 2
19.178978 10.27271 5.4078398 22
40.594707 13.139594 5.9917493 9
20.105474 10.75104 4.0099044 26
40.557289 13.143109 2.9713409 16
nan nan nan 0
44.066139 14.288308 0 4
62.711227 33.454254 2.4808307 38
nan nan nan 0
nan nan nan 0
12.478952 4.0325665 -1.833565 6
15.814901 8.4314184 -1.873703 17
7.7117143 2.4833455 -1.7161607 12
8.8053646 4.6953487 -1.7534138 7
5.6656246 1.8147808 -1.6948273 5
5.9678698 3.1841948 -1.6765548 16
nan nan nan 0
19.679308 12.449669 6.2216582 15
42.206867 17.063021 7.1887102 76
18.838274 11.871444 4.3174663 22
54.869968 22.181814 5.1748724 4
20.360085 12.796206 2.944133 17
66.67688 26.940977 1.2546535 39
26.970579 16.919823 1.6667693 65
23.942648 9.6703577 -1.3559495 42
nan nan nan 0
14.591595 5.8882675 -1.9249305 19
19.325703 12.127028 -1.9890612 13
8.2948637 3.3446963 -1.7284831 6
9.3680897 5.8825917 -1.748517 6
5.8652372 2.3631618 -1.6838151 5
6.2209072 3.9150875 -1.6862675 5
32.152004 10.383038 7.1681023 50
19.178978 10.27271 5.4078398 22
40.594707 13.139594 5.9917493 9
20.105474 10.75104 4.0099044 26
40.557289 13.143109 2.9713409 16
nan nan nan 0
44.066139 14.288308 0 4
62.711227 33.454254 2.4808307 38
nan nan nan 0
nan nan nan 0
12.478952 4.0325665 -1.833565 6
15.814901 8.4314184 -1.873703 17
7.7117143 2.4833455 -1.7161607 12
8.8053646 4.6953487 -1.7534138 7
5.6656246 1.8147808 -1.6948273 5
5.9678698 3.1841948 -1.6765548 16
nan nan nan 0
19.679308 12.449669 6.2216582 15
42.206867 17.063021 7.1887102 76
18.838274 11.871444 4.3174663 22
54.869968 22.181814 5.1748724 4
20.360085 12.796206 2.944133 17
66.67688 26.940977 1.2546535 39
26.970579 16.919823 1.6667693 65
23.942648 9.6703577 -1.3559495 42
nan nan nan 0
14.591595 5.8882675 -1.9249305 19
19.325703 12.127028 -1.9890612 13
8.2948637 3.3446963 -1.7284831 6
9.3680897 5.8825917 -1.748517 6
5.8652372 2.3631618 -1.6838151 5
6.2209072 3.9150875 -1.6862675 5
32.069225 10.232845 7.1416144 51
20.77866 11.036561 5.8487287 24
40.152206 12.841751 5.9197273 13
20.110254 10.663489 4.0033989 27
40.070869 12.831149 2.9323747 13
22.053423 11.679306 2.6192219 20
44.856197 14.371563 0 3
62.805538 33.223461 2.4799581 36
nan nan nan 0
nan nan nan 0
12.464648 3.9799545 -1.8294002 7
15.824453 8.3657017 -1.8713591 17
7.7226667 2.4571519 -1.716681 13
8.8173485 4.662281 -1.7525456 7
5.6810927 1.7978871 -1.6975821 6
5.9746604 3.1610732 -1.6753459 16
nan nan nan 0
19.379057 12.165116 6.1130958 24
42.10339 16.850447 7.1610041 73
18.971144 11.862885 4.3384366 24
54.454559 21.793058 5.1284618 16
20.088835 12.528035 2.8984969 20
66.786766 26.714567 1.2549589 55
26.955301 16.779388 1.66219 59
23.976259 9.5867233 -1.3559495 43
27.207529 16.929859 -0.5587433 1
14.593624 5.8299346 -1.9224964 18
18.913424 11.776375 -1.9423083 15
8.3042097 3.3148124 -1.7280071 7
9.3990421 5.8563876 -1.7504746 5
5.8689628 2.3408859 -1.6825218 5
6.2345357 3.8933487 -1.6862675 5
32.069225 10.232845 7.1416144 51
20.77866 11.036561 5.8487287 24
40.152206 12.841751 5.9197273 13
20.110254 10.663489 4.0033989 27
40.070869 12.831149 2.9323747 13
22.055462 11.675457 2.6192219 20
44.856197 14.371563 0 3
62.805538 33.223461 2.4799581 36
nan nan nan 0
nan nan nan 0
12.465342 3.9777787 -1.8294002 7
15.824453 8.3657017 -1.8713591 17
7.7230954 2.4558039 -1.716681 13
8.8173485 4.662281 -1.7525456 7
5.6814065 1.7968955 -1.6975821 6
5.9746604 3.1610732 -1.6753459 16
nan nan nan 0
19.379057 12.165116 6.1130958 24
42.106327 16.843098 7.1610041 73
18.971144 11.862885 4.3384366 24
54.458363 21.783556 5.1284618 16
20.088835 12.528035 2.8984969 20
66.791428 26.702909 1.2549589 55
26.955301 16.779388 1.66219 59
23.97793 9.5825386 -1.3559495 43
nan nan nan 0
14.594641 5.8273873 -1.9224964 18
18.915478 11.773075 -1.9423083 15
8.3042097 3.3148124 -1.7280071 7
9.4000635 5.8547478 -1.7504746 5
5.8693714 2.3398612 -1.6825218 5
6.2352152 3.8922606 -1.6862675 5
15.407917 4.8565927 3.4235709 6
21.074411 11.094836 5.9205999 21
39.74572 12.551408 5.8529243 13
20.131767 10.580544 3.9999294 28
39.623009 12.527861 2.8961918 16
22.106911 11.599161 2.6202672 23
45.022987 14.243245 0 45
62.944592 33.002331 2.4806561 39
nan nan nan 0
nan nan nan 0
12.496369 3.9372668 -1.8318297 7
15.868222 8.3145714 -1.8729217 14
7.7273779 2.4260185 -1.7156405 14
8.8409185 4.6333623 -1.7538478 7
5.6810699 1.7739156 -1.6955161 6
5.9947982 3.1436632 -1.6777636 15
nan nan nan 0
nan nan nan 0
42.018532 16.629597 7.1356397 63
18.976961 11.769982 4.3298578 26
54.241421 21.466507 5.1005721 24
20.176823 12.480437 2.9045818 34
64.485405 25.507305 1.2098445 1
26.925283 16.624065 1.6565639 55
24.038429 9.5046864 -1.3573935 40
27.188576 16.780127 -0.55708534 63
14.606669 5.7702103 -1.9212794 18
18.651251 11.513906 -1.9107772 15
8.3208675 3.2861557 -1.7289592 7
9.4193602 5.8189573 -1.7500831 5
5.8868952 2.3218753 -1.6851084 5
6.2515092 3.8706648 -1.686829 5
32.027214 10.090261 7.1239567 1
21.074411 11.094836 5.9205999 21
39.74572 12.551408 5.8529243 13
20.131767 10.580544 3.9999294 28
39.623009 12.527861 2.8961918 16
22.106911 11.599161 2.6202672 23
45.022987 14.243245 0 45
62.944592 33.002331 2.4806561 39
nan nan nan 0
nan nan nan 0
12.496369 3.9372668 -1.8318297 7
15.868225 8.3145657 -1.8729217 14
7.7273779 2.4260185 -1.7156405 14
8.8417263 4.6318188 -1.7538478 7
5.6810699 1.7739156 -1.6955161 6
5.995347 3.1426165 -1.6777636 15
nan nan nan 0
nan nan nan 0
42.018532 16.629597 7.1356397 63
18.979015 11.76667 4.3298578 26
54.241421 21.466507 5.1005721 24
20.178999 12.476915 2.9045818 34
64.485405 25.507305 1.2098445 1
26.928185 16.61937 1.6565639 55
24.038429 9.5046864 -1.3573935 40
27.191504 16.775381 -0.55708534 63
14.606669 5.7702103 -1.9212794 18
18.653259 11.51065 -1.9107772 15
8.3214417 3.284703 -1.7289592 7
9.4203749 5.8173127 -1.7500831 5
5.8873005 2.320848 -1.6851084 5
6.2515092 3.8706648 -1.686829 5
15.541529 4.8390999 3.4495385 19
21.102257 11.015591 5.9175797 25
39.274067 12.251919 5.7770748 13
20.177309 10.514758 4.0016642 26
39.178478 12.2371 2.8605311 18
22.125212 11.510448 2.6176541 21
45.084366 14.089728 0 4
63.072716 32.78933 2.4811797 38
nan nan nan 0
nan nan nan 0
12.526587 3.8987677 -1.8342592 6
15.912595 8.2671499 -1.8747449 12
7.7404709 2.4004762 -1.716681 14
8.8578415 4.6009274 -1.7538478 7
5.6849303 1.7533675 -1.6948273 6
6.0084324 3.1227891 -1.6783679 16
nan nan nan 0
18.448668 11.393114 5.7925782 23
41.873989 16.40357 7.1012998 53
19.068043 11.729932 4.3408194 23
54.109638 21.196199 5.0811796 37
20.334517 12.475196 2.9207065 24
64.636902 25.306658 1.2110224 1
26.898746 16.4718 1.6511993 41
24.015665 9.3988857 -1.3542428 1
26.597582 16.280937 -0.54373407 39
14.592055 5.7056379 -1.9167159 19
18.436352 11.288055 -1.8844652 17
8.3305712 3.2547433 -1.7284831 7
9.4574623 5.7947206 -1.7532152 5
5.8931155 2.2994058 -1.6844618 5
6.2732825 3.8539257 -1.6890751 5
32.200008 10.021263 7.1545982 1
21.102257 11.015591 5.9175797 25
39.274067 12.251919 5.7770748 13
20.177309 10.514758 4.0016642 26
39.178478 12.2371 2.8605311 18
22.125212 11.510448 2.6176541 21
57.04903 17.827765 0 3
63.072716 32.78933 2.4811797 38
nan nan nan 0
nan nan nan 0
12.526587 3.8987677 -1.8342592 6
15.912592 8.2671556 -1.8747449 12
7.7404709 2.4004762 -1.716681 14
8.8570385 4.6024728 -1.7538478 7
5.6849303 1.7533675 -1.6948273 6
6.0078869 3.1238379 -1.6783679 16
nan nan nan 0
18.44668 11.396335 5.7925782 23
41.873989 16.40357 7.1012998 53
19.065994 11.733261 4.3408194 23
54.109638 21.196199 5.0811796 37
20.332336 12.478745 2.9207065 24
64.636902 25.306658 1.2110224 1
26.89587 16.476496 1.6511993 41
24.015665 9.3988857 -1.3542428 1
26.594742 16.28558 -0.54373407 39
14.592055 5.7056379 -1.9167159 19
18.434381 11.291273 -1.8844652 17
8.3300028 3.2561972 -1.7284831 7
9.4564505 5.7963715 -1.7532152 5
5.8927145 2.3004344 -1.6844618 5
6.2732825 3.8539257 -1.6890751 5
15.583204 4.7954416 3.4552515 24
21.110666 10.931049 5.9097285 23
38.834213 11.97359 5.7064443 16
20.247063 10.465883 4.0086036 24
38.730316 11.956354 2.8248701 18
22.189772 11.450699 2.62079 25
43.633114 13.477668 0 2
63.2033 32.591438 2.4820518 38
nan nan nan 0
nan nan nan 0
12.574945 3.868114 -1.8394651 5
15.926661 8.2075081 -1.8731822 10
7.755403 2.3769405 -1.7182416 15
8.8788166 4.5764627 -1.7551503 7
5.7045102 1.7387005 -1.6989595 6
6.0225244 3.106123 -1.6795766 15
nan nan nan 0
18.63258 11.426031 5.8391051 26
41.716351 16.182467 7.0653992 55
19.069201 11.648216 4.3327174 27
54.072819 20.97522 5.071157 47
21.017759 12.803826 3.0131958 22
nan nan nan 0
26.730661 16.253584 1.6377228 29
nan nan nan 0
27.105667 16.475199 -0.5530712 59
14.583126 5.6464682 -1.913065 20
18.297243 11.123952 -1.8666339 16
8.3407555 3.2285562 -1.7284831 6
9.4777288 5.7662654 -1.7536067 5
5.9070687 2.2834914 -1.6864017 5
6.2860279 3.8331015 -1.6890751 5
15.583204 4.7954416 3.4552515 24
21.110666 10.931049 5.9097285 23
38.834213 11.97359 5.7064443 16
20.247063 10.465883 4.0086036 24
38.730316 11.956354 2.8248701 18
22.187771 11.454571 2.62079 25
56.527378 17.459249 0 34
63.2033 32.591438 2.4820518 38
nan nan nan 0
nan nan nan 0
12.574269 3.8703086 -1.8394651 5
15.926661 8.2075081 -1.8731822 10
7.7549887 2.3782942 -1.7182416 15
8.8788166 4.5764627 -1.7551503 7
5.7042069 1.7396961 -1.6989595 6
6.0225244 3.106123 -1.6795766 15
nan nan nan 0
18.63258 11.426031 5.8391051 26
41.713524 16.189747 7.0653992 55
19.069201 11.648216 4.3327174 27
54.069157 20.984657 5.071157 47
21.017759 12.803826 3.0131958 22
nan nan nan 0
26.730661 16.253584 1.6377228 29
nan nan nan 0
27.105667 16.475199 -0.5530712 59
14.582141 5.6490135 -1.913065 20
18.295301 11.127146 -1.8666339 16
8.3407555 3.2285562 -1.7284831 6
9.4767237 5.7679191 -1.7536067 5
5.9066701 2.2845223 -1.6864017 5
6.2853589 3.8341985 -1.6890751 5
15.099094 4.5889716 3.34411 32
21.172432 10.869482 5.9163723 25
38.404465 11.694496 5.6372056 13
20.272516 10.389528 4.0064349 21
38.328094 11.685852 2.7925143 18
22.043928 11.283011 2.5991004 24
43.577068 13.293919 0 2
63.323349 32.374031 2.4823136 34
nan nan nan 0
nan nan nan 0
12.62087 3.8364632 -1.8443241 5
15.983994 8.1665726 -1.8765681 9
7.7655835 2.3519173 -1.7187618 14
8.8991213 4.5476837 -1.7560186 7
5.707943 1.7190826 -1.6982708 6
6.0311708 3.0839763 -1.6789722 16
nan nan nan 0
